ncols         382
nrows         48
xllcorner     157819.328125
yllcorner     388608.625
cellsize      30
NODATA_value  -9999
-9999 -9999 -9999 -9999 -9999 -9999 -9999 -9999 -9999 -9999 -9999 -9999 714 719 721 725 729 729 730 731 733 734 735 736 737 739 741 742 744 748 754 758 762 765 767 768 769 770 770 771 771 772 773 773 774 775 776 776 777 777 778 778 779 780 782 784 786 789 791 793 794 796 798 800 802 802 802 802 802 803 804 806 810 814 817 820 825 828 830 831 832 833 835 836 837 838 839 839 840 840 840 841 842 842 842 842 842 842 842 842 842 842 842 842 842 842 842 842 842 841 841 841 841 841 841 841 841 841 841 841 841 841 841 841 841 841 841 841 841 841 841 841 841 841 841 841 841 841 841 841 841 841 841 841 842 846 852 856 863 868 869 866 863 862 863 864 865 866 868 869 870 873 876 882 891 903 920 935 948 962 979 994 1008 1024 1039 1051 1060 1071 1082 1088 1094 1097 1105 1120 1142 1163 1179 1194 1213 1232 1247 1260 1272 1282 1293 1305 1315 1314 1309 1303 1289 1276 1269 1266 1265 1263 1262 1262 1264 1270 1278 1285 1291 1293 1297 1302 1312 1323 1334 1333 1324 1304 1280 1256 1234 1215 1200 1184 1169 1159 1146 1125 1106 1093 1085 1080 1079 1082 1087 1097 1130 1161 1192 1215 1230 1233 1227 1216 1207 1205 1209 1207 1193 1176 1176 1186 1198 1199 1185 1175 1175 1171 1164 1171 1187 1193 1185 1171 1153 1134 1123 1114 1104 1100 1098 1106 1119 1136 1153 1173 1193 1213 1234 1254 1271 1284 1299 1315 1331 1349 1367 1380 1391 1406 1419 1429 1441 1451 1458 1466 1473 1480 1486 1492 1499 1508 1518 1529 1539 1550 1563 1576 1589 1601 1612 1622 1633 1644 1656 1669 1684 1698 1710 1721 1730 1738 1747 1755 1758 -9999 -9999 -9999 -9999 -9999 -9999 -9999 -9999 -9999 -9999 -9999 -9999 -9999 -9999 -9999 -9999 -9999 -9999 -9999 -9999 -9999 -9999 -9999 -9999 -9999 -9999 -9999 -9999 -9999 -9999 -9999 -9999 -9999 -9999 -9999 -9999 -9999 -9999 -9999 -9999 -9999 -9999 -9999 -9999 -9999 -9999 -9999 -9999 -9999 -9999 -9999 -9999 -9999
-9999 -9999 -9999 -9999 -9999 -9999 -9999 -9999 -9999 -9999 -9999 -9999 711 713 715 721 729 730 731 730 732 733 734 735 737 739 740 741 743 745 754 757 761 764 767 768 769 769 770 770 771 772 772 773 773 774 775 775 776 776 777 778 778 779 781 783 786 789 791 793 794 796 797 799 800 800 801 802 802 804 805 807 811 814 818 821 824 827 828 829 831 832 834 835 836 837 838 838 839 839 840 841 841 841 841 841 841 842 841 841 841 841 841 841 841 842 842 842 842 841 841 841 841 841 841 841 841 841 841 841 841 841 841 841 841 841 841 841 841 841 841 841 841 841 841 841 841 841 841 841 841 841 841 841 842 843 848 851 853 856 858 857 856 857 859 861 862 863 865 866 869 872 876 883 893 905 921 935 948 963 982 1000 1016 1031 1044 1053 1059 1065 1071 1077 1083 1090 1100 1116 1136 1155 1172 1187 1207 1227 1247 1261 1273 1283 1293 1303 1308 1304 1299 1293 1283 1270 1255 1250 1246 1243 1241 1242 1244 1250 1258 1266 1271 1274 1277 1282 1291 1304 1317 1319 1307 1287 1269 1252 1233 1212 1189 1168 1152 1141 1126 1111 1093 1076 1072 1069 1069 1073 1081 1094 1128 1156 1179 1198 1211 1213 1206 1194 1184 1183 1188 1188 1178 1152 1150 1161 1175 1175 1162 1150 1151 1154 1146 1151 1166 1172 1165 1153 1136 1116 1103 1093 1085 1091 1102 1117 1133 1150 1167 1188 1208 1227 1249 1270 1287 1300 1311 1323 1336 1355 1373 1385 1399 1413 1424 1437 1449 1458 1467 1476 1485 1492 1499 1507 1515 1525 1534 1544 1555 1565 1577 1589 1601 1612 1623 1633 1643 1654 1665 1679 1693 1706 1717 1727 1735 1743 1752 1761 1764 -9999 -9999 -9999 -9999 -9999 -9999 -9999 -9999 -9999 -9999 -9999 -9999 -9999 -9999 -9999 -9999 -9999 -9999 -9999 -9999 -9999 -9999 -9999 -9999 -9999 -9999 -9999 -9999 -9999 -9999 -9999 -9999 -9999 -9999 -9999 -9999 -9999 -9999 -9999 -9999 -9999 -9999 -9999 -9999 -9999 -9999 -9999 -9999 -9999 -9999 -9999 -9999 -9999
-9999 -9999 -9999 -9999 -9999 -9999 -9999 -9999 -9999 -9999 -9999 -9999 -9999 711 712 715 722 729 730 729 731 732 733 735 736 738 739 741 743 745 755 757 760 763 766 768 768 769 769 770 771 771 772 772 773 774 774 774 775 775 776 777 777 778 780 783 785 788 791 793 794 795 796 797 798 799 800 801 802 804 805 808 811 814 817 819 822 825 827 829 830 832 833 834 835 835 836 837 838 839 840 840 840 840 840 841 840 841 841 841 841 841 841 840 841 841 841 842 842 841 841 841 841 841 841 841 841 841 841 841 841 841 841 841 841 841 841 841 841 841 841 841 841 841 841 841 841 841 841 841 841 841 841 841 842 843 846 850 851 852 852 852 852 854 856 858 860 862 863 864 867 871 875 883 894 906 921 934 948 964 984 1004 1020 1033 1043 1046 1048 1051 1054 1059 1068 1081 1094 1109 1124 1142 1160 1177 1194 1217 1236 1253 1266 1277 1286 1294 1297 1293 1288 1282 1276 1264 1247 1235 1226 1222 1220 1221 1224 1228 1235 1242 1248 1252 1256 1261 1271 1287 1301 1303 1291 1270 1255 1238 1224 1208 1185 1160 1141 1124 1110 1095 1079 1067 1060 1058 1059 1065 1077 1092 1122 1147 1163 1179 1189 1192 1186 1173 1162 1165 1173 1172 1161 1135 1128 1141 1148 1147 1137 1123 1127 1136 1127 1132 1147 1149 1143 1134 1116 1098 1084 1078 1084 1098 1115 1132 1149 1164 1181 1201 1220 1238 1262 1287 1307 1320 1327 1334 1344 1359 1374 1387 1402 1416 1427 1440 1453 1463 1474 1484 1494 1503 1512 1521 1530 1540 1550 1560 1568 1578 1591 1603 1614 1623 1634 1644 1653 1663 1676 1689 1701 1714 1724 1732 1740 1748 1758 1768 1772 -9999 -9999 -9999 -9999 -9999 -9999 -9999 -9999 -9999 -9999 -9999 -9999 -9999 -9999 -9999 -9999 -9999 -9999 -9999 -9999 -9999 -9999 -9999 -9999 -9999 -9999 -9999 -9999 -9999 -9999 -9999 -9999 -9999 -9999 -9999 -9999 -9999 -9999 -9999 -9999 -9999 -9999 -9999 -9999 -9999 -9999 -9999 -9999 -9999 -9999 -9999 -9999 -9999
-9999 -9999 -9999 -9999 -9999 -9999 -9999 -9999 -9999 -9999 -9999 -9999 -9999 -9999 -9999 712 715 721 724 727 728 731 733 734 735 737 738 740 742 745 755 757 760 762 765 767 768 768 768 769 770 771 772 772 773 773 773 773 773 774 775 777 778 779 781 784 785 788 791 792 794 795 795 796 796 797 800 801 802 803 805 808 811 813 815 818 821 825 828 829 830 831 832 833 834 835 836 836 837 838 839 839 840 840 840 840 840 840 840 840 840 840 840 840 840 840 841 841 842 841 841 841 841 841 841 841 841 841 841 841 841 841 841 841 841 841 841 841 841 841 841 841 841 841 841 841 841 841 841 841 841 841 841 841 842 842 845 848 850 851 851 851 851 853 855 856 858 860 861 864 866 869 873 881 893 908 924 939 953 968 986 1006 1023 1032 1036 1035 1033 1032 1033 1040 1055 1072 1087 1100 1112 1127 1146 1164 1181 1199 1222 1240 1254 1266 1275 1283 1286 1284 1278 1271 1262 1252 1240 1224 1210 1203 1202 1203 1206 1209 1212 1216 1222 1228 1234 1241 1253 1270 1286 1288 1278 1260 1238 1219 1205 1193 1180 1160 1136 1116 1098 1080 1068 1056 1047 1047 1050 1059 1072 1088 1110 1137 1150 1159 1167 1168 1162 1150 1142 1147 1157 1155 1135 1118 1109 1118 1120 1117 1109 1097 1100 1112 1105 1116 1125 1125 1122 1112 1095 1079 1069 1075 1087 1107 1125 1144 1162 1178 1195 1211 1225 1240 1260 1284 1306 1324 1337 1346 1354 1364 1375 1386 1401 1416 1428 1443 1456 1467 1478 1489 1499 1510 1520 1531 1541 1552 1561 1572 1582 1591 1603 1615 1624 1634 1644 1654 1664 1674 1685 1697 1709 1720 1729 1737 1744 1753 1763 1775 1780 1770 -9999 -9999 -9999 -9999 -9999 -9999 -9999 -9999 -9999 -9999 -9999 -9999 -9999 -9999 -9999 -9999 -9999 -9999 -9999 -9999 -9999 -9999 -9999 -9999 -9999 -9999 -9999 -9999 -9999 -9999 -9999 -9999 -9999 -9999 -9999 -9999 -9999 -9999 -9999 -9999 -9999 -9999 -9999 -9999 -9999 -9999 -9999 -9999 -9999 -9999 -9999 -9999
-9999 -9999 -9999 -9999 -9999 -9999 -9999 -9999 -9999 -9999 -9999 -9999 -9999 -9999 -9999 -9999 -9999 -9999 716 720 725 728 731 733 734 736 737 739 741 745 755 757 759 761 763 765 766 766 768 769 770 771 771 771 771 772 772 771 771 773 774 776 778 780 781 784 785 788 790 793 794 794 794 793 795 797 798 800 802 803 805 808 810 813 815 818 821 825 828 829 830 830 831 832 833 834 835 836 836 837 838 838 839 839 839 839 839 840 840 840 839 839 839 839 839 840 840 841 841 841 841 841 841 841 841 841 841 841 841 841 841 841 841 841 841 841 841 841 841 841 841 840 840 840 840 841 841 841 841 841 841 841 841 841 841 842 845 847 848 849 850 850 850 852 853 855 857 858 861 863 865 868 873 880 893 911 930 949 963 976 990 1009 1024 1028 1025 1020 1017 1015 1016 1025 1043 1063 1077 1088 1100 1114 1130 1149 1167 1183 1202 1223 1239 1251 1262 1271 1276 1275 1268 1260 1251 1241 1228 1213 1198 1188 1184 1184 1186 1191 1195 1199 1203 1208 1214 1222 1234 1253 1269 1272 1266 1252 1228 1204 1186 1172 1165 1156 1137 1116 1093 1071 1060 1049 1040 1038 1041 1051 1066 1081 1099 1121 1139 1147 1150 1148 1141 1131 1125 1130 1139 1133 1111 1093 1087 1095 1091 1086 1079 1073 1074 1078 1083 1097 1105 1102 1098 1089 1075 1065 1065 1080 1097 1116 1137 1157 1174 1194 1211 1222 1233 1244 1258 1278 1298 1317 1336 1350 1360 1369 1378 1388 1402 1415 1429 1446 1457 1468 1481 1492 1502 1513 1524 1536 1549 1559 1568 1580 1592 1602 1612 1623 1634 1645 1655 1664 1672 1682 1692 1703 1715 1725 1733 1740 1747 1756 1766 1776 1782 1776 -9999 -9999 -9999 -9999 -9999 -9999 -9999 -9999 -9999 -9999 -9999 -9999 -9999 -9999 -9999 -9999 -9999 -9999 -9999 -9999 -9999 -9999 -9999 -9999 -9999 -9999 -9999 -9999 -9999 -9999 -9999 -9999 -9999 -9999 -9999 -9999 -9999 -9999 -9999 -9999 -9999 -9999 -9999 -9999 -9999 -9999 -9999 -9999 -9999 -9999 -9999 -9999
-9999 -9999 -9999 -9999 -9999 -9999 -9999 -9999 -9999 -9999 -9999 -9999 -9999 -9999 -9999 -9999 -9999 -9999 -9999 -9999 717 723 728 732 733 734 736 739 741 745 753 756 758 760 762 764 766 767 768 769 770 770 770 771 771 771 770 769 769 771 774 776 779 780 782 783 784 787 789 792 793 793 792 792 794 796 797 799 802 803 805 808 810 813 815 818 821 825 828 829 830 830 831 831 832 833 834 835 836 836 837 837 838 838 838 838 838 839 839 839 839 839 839 839 839 839 840 840 841 841 841 841 841 841 841 841 841 841 841 841 841 841 841 841 841 841 841 841 841 840 840 840 840 840 840 841 841 841 841 841 841 841 841 841 842 843 845 846 847 848 848 849 850 851 852 854 855 857 859 861 863 867 872 880 894 914 934 954 968 979 991 1006 1017 1018 1011 1004 999 998 1004 1016 1034 1052 1065 1075 1087 1102 1117 1132 1150 1168 1184 1202 1219 1233 1245 1256 1263 1264 1258 1249 1237 1225 1213 1201 1187 1176 1167 1162 1161 1165 1171 1179 1185 1191 1197 1206 1219 1238 1252 1253 1250 1243 1224 1201 1178 1158 1147 1140 1131 1114 1090 1066 1051 1040 1033 1031 1032 1042 1057 1072 1088 1106 1123 1132 1132 1127 1121 1113 1108 1112 1119 1110 1089 1073 1068 1070 1062 1056 1052 1053 1056 1063 1071 1080 1079 1074 1072 1067 1060 1057 1068 1087 1108 1126 1149 1169 1189 1207 1223 1236 1246 1257 1270 1285 1300 1315 1331 1347 1360 1371 1382 1393 1405 1417 1432 1447 1458 1468 1482 1494 1504 1515 1527 1539 1551 1562 1571 1583 1596 1606 1617 1628 1641 1653 1662 1670 1678 1687 1697 1708 1718 1727 1735 1743 1749 1756 1763 1771 1776 1776 -9999 -9999 -9999 -9999 -9999 -9999 -9999 -9999 -9999 -9999 -9999 -9999 -9999 -9999 -9999 -9999 -9999 -9999 -9999 -9999 -9999 -9999 -9999 -9999 -9999 -9999 -9999 -9999 -9999 -9999 -9999 -9999 -9999 -9999 -9999 -9999 -9999 -9999 -9999 -9999 -9999 -9999 -9999 -9999 -9999 -9999 -9999 -9999 -9999 -9999 -9999 -9999
-9999 -9999 -9999 -9999 -9999 -9999 -9999 -9999 -9999 -9999 -9999 -9999 -9999 -9999 -9999 -9999 -9999 -9999 -9999 -9999 712 715 721 729 732 734 736 737 740 743 748 754 757 759 762 765 767 768 768 769 770 769 769 770 770 770 769 768 768 770 773 776 778 780 781 782 782 784 788 790 791 791 791 791 793 795 796 798 801 803 805 808 810 813 815 818 820 823 826 828 829 830 830 830 831 833 834 834 835 836 836 836 837 837 837 837 837 838 838 838 838 838 838 838 838 839 839 840 841 841 841 841 841 841 841 841 841 841 841 841 841 841 841 841 841 841 841 841 840 840 840 840 840 840 841 841 841 842 842 842 842 842 842 843 843 844 845 845 846 847 848 848 849 850 851 852 854 856 857 860 862 865 871 879 893 912 932 950 964 974 986 997 1006 1005 999 992 987 987 995 1009 1024 1037 1050 1061 1075 1089 1104 1119 1134 1150 1166 1182 1198 1213 1224 1237 1248 1250 1244 1232 1219 1209 1197 1185 1174 1162 1153 1146 1144 1147 1153 1161 1168 1177 1185 1193 1208 1225 1234 1235 1234 1230 1216 1196 1172 1149 1132 1120 1110 1098 1078 1054 1039 1031 1026 1024 1024 1031 1045 1061 1077 1092 1106 1112 1110 1103 1096 1091 1086 1090 1094 1083 1066 1053 1049 1049 1041 1034 1032 1034 1039 1046 1052 1052 1050 1049 1050 1050 1051 1058 1075 1095 1116 1139 1162 1183 1200 1215 1231 1245 1258 1272 1285 1299 1312 1321 1330 1344 1358 1370 1383 1395 1409 1421 1432 1445 1457 1468 1483 1495 1505 1517 1528 1539 1551 1562 1573 1584 1595 1606 1617 1629 1643 1656 1665 1673 1680 1688 1698 1710 1720 1727 1735 1741 1747 1751 1756 1762 1768 1771 1764 -9999 -9999 -9999 -9999 -9999 -9999 -9999 -9999 -9999 -9999 -9999 -9999 -9999 -9999 -9999 -9999 -9999 -9999 -9999 -9999 -9999 -9999 -9999 -9999 -9999 -9999 -9999 -9999 -9999 -9999 -9999 -9999 -9999 -9999 -9999 -9999 -9999 -9999 -9999 -9999 -9999 -9999 -9999 -9999 -9999 -9999 -9999 -9999 -9999 -9999 -9999
-9999 -9999 -9999 -9999 -9999 -9999 -9999 -9999 -9999 -9999 -9999 -9999 -9999 -9999 -9999 -9999 -9999 -9999 -9999 -9999 -9999 -9999 -9999 717 726 732 734 736 738 739 742 750 756 757 761 765 768 769 769 770 769 769 769 769 770 769 768 768 768 770 772 774 777 779 779 780 780 782 785 787 789 789 789 790 792 794 795 797 800 803 805 807 810 812 815 817 819 822 825 827 828 829 829 830 831 832 833 834 834 835 835 836 836 836 836 836 837 837 837 837 837 837 837 837 838 838 839 840 840 840 841 841 841 841 841 841 841 841 841 841 841 841 841 841 841 841 840 840 839 840 840 840 840 840 841 842 842 842 842 842 842 842 843 843 844 844 844 845 845 846 847 847 848 849 850 851 853 854 855 857 860 863 869 878 890 906 924 941 955 967 978 988 993 992 986 980 977 980 990 1000 1012 1021 1032 1048 1064 1078 1092 1107 1121 1134 1148 1164 1179 1194 1207 1220 1232 1234 1226 1214 1202 1190 1178 1167 1157 1146 1137 1131 1129 1130 1134 1142 1151 1159 1170 1182 1197 1211 1216 1214 1212 1210 1204 1188 1165 1142 1122 1103 1087 1073 1055 1038 1028 1023 1019 1017 1017 1021 1033 1049 1065 1080 1090 1091 1086 1080 1075 1069 1065 1067 1069 1059 1045 1033 1027 1027 1022 1017 1016 1018 1023 1027 1030 1030 1033 1036 1039 1046 1055 1068 1084 1104 1126 1150 1172 1193 1210 1223 1238 1253 1269 1286 1299 1314 1326 1333 1338 1344 1356 1367 1380 1393 1408 1421 1432 1442 1455 1467 1481 1495 1505 1516 1527 1538 1548 1560 1571 1582 1593 1604 1615 1627 1641 1654 1664 1672 1679 1687 1697 1707 1716 1723 1730 1736 1742 1745 1749 1753 1758 1762 1759 -9999 -9999 -9999 -9999 -9999 -9999 -9999 -9999 -9999 -9999 -9999 -9999 -9999 -9999 -9999 -9999 -9999 -9999 -9999 -9999 -9999 -9999 -9999 -9999 -9999 -9999 -9999 -9999 -9999 -9999 -9999 -9999 -9999 -9999 -9999 -9999 -9999 -9999 -9999 -9999 -9999 -9999 -9999 -9999 -9999 -9999 -9999 -9999 -9999 -9999 -9999
-9999 -9999 -9999 -9999 -9999 -9999 -9999 -9999 -9999 -9999 -9999 -9999 -9999 -9999 -9999 -9999 -9999 -9999 -9999 -9999 -9999 -9999 -9999 -9999 718 728 733 735 736 735 739 745 751 754 758 765 768 769 769 769 769 768 768 769 769 769 768 768 768 769 771 774 776 777 777 778 779 781 783 785 786 787 787 789 791 792 793 795 799 802 805 807 810 812 815 817 819 821 824 826 827 828 828 829 830 830 832 833 834 834 835 835 835 835 836 836 836 837 837 837 837 837 837 837 837 837 838 839 839 840 840 840 840 840 840 841 841 841 841 841 841 841 840 840 840 840 840 839 839 839 839 840 840 840 842 842 842 842 842 842 843 843 844 844 844 844 844 844 844 845 845 846 846 847 849 850 851 852 852 856 859 862 866 875 886 899 913 932 946 960 968 975 977 977 973 969 969 976 984 992 999 1008 1018 1035 1054 1068 1081 1095 1109 1121 1133 1146 1160 1175 1189 1203 1216 1217 1208 1197 1183 1170 1160 1151 1140 1131 1124 1119 1117 1116 1117 1123 1133 1143 1153 1166 1182 1194 1196 1193 1192 1191 1187 1178 1157 1133 1112 1092 1073 1057 1042 1028 1019 1014 1011 1009 1009 1011 1021 1036 1052 1067 1074 1072 1065 1060 1056 1052 1047 1049 1049 1039 1025 1014 1011 1010 1006 1004 1004 1007 1011 1015 1019 1024 1031 1038 1046 1056 1068 1081 1096 1114 1136 1159 1181 1199 1216 1230 1245 1260 1278 1294 1309 1323 1334 1343 1348 1350 1355 1365 1376 1388 1403 1418 1428 1438 1451 1463 1477 1491 1503 1513 1524 1535 1545 1556 1568 1580 1591 1602 1612 1623 1637 1649 1659 1667 1675 1682 1691 1699 1707 1714 1720 1725 1731 1737 1741 1745 1748 1753 1752 -9999 -9999 -9999 -9999 -9999 -9999 -9999 -9999 -9999 -9999 -9999 -9999 -9999 -9999 -9999 -9999 -9999 -9999 -9999 -9999 -9999 -9999 -9999 -9999 -9999 -9999 -9999 -9999 -9999 -9999 -9999 -9999 -9999 -9999 -9999 -9999 -9999 -9999 -9999 -9999 -9999 -9999 -9999 -9999 -9999 -9999 -9999 -9999 -9999 -9999 -9999
-9999 -9999 -9999 -9999 -9999 -9999 -9999 -9999 -9999 -9999 -9999 -9999 -9999 -9999 -9999 -9999 -9999 -9999 -9999 -9999 -9999 -9999 -9999 -9999 715 724 731 733 734 733 736 742 747 751 756 764 768 769 769 769 769 768 768 768 769 768 768 768 768 768 770 772 774 775 775 777 779 781 782 784 784 784 785 787 788 790 792 794 798 801 804 807 809 812 815 817 819 821 823 825 826 827 827 828 830 831 832 833 834 834 834 834 834 835 835 835 836 836 836 836 836 836 836 836 836 836 837 838 838 838 838 839 839 839 839 840 840 841 841 841 840 840 840 839 839 839 839 837 838 838 839 840 840 841 841 841 842 842 842 842 843 843 843 843 843 843 843 843 843 843 843 844 845 846 847 848 849 851 853 855 858 861 865 872 881 894 907 922 935 949 956 959 961 962 962 961 964 971 977 984 989 997 1009 1025 1045 1060 1072 1083 1096 1108 1120 1131 1143 1157 1171 1186 1199 1200 1191 1179 1164 1153 1143 1133 1123 1116 1110 1106 1103 1102 1101 1104 1114 1126 1137 1149 1163 1177 1176 1169 1166 1164 1163 1163 1148 1124 1103 1083 1064 1048 1033 1020 1011 1007 1005 1002 1001 1001 1008 1023 1039 1052 1059 1055 1045 1037 1034 1031 1027 1029 1027 1016 1007 1002 999 997 996 995 997 1000 1006 1015 1025 1033 1041 1050 1061 1072 1084 1096 1109 1125 1143 1165 1186 1203 1219 1234 1250 1267 1284 1301 1316 1328 1339 1350 1358 1360 1362 1367 1374 1383 1396 1412 1423 1432 1443 1456 1469 1483 1496 1508 1518 1530 1541 1551 1562 1575 1587 1598 1609 1619 1631 1642 1652 1661 1668 1675 1683 1690 1698 1703 1708 1713 1719 1725 1732 1736 1740 1743 1744 1740 -9999 -9999 -9999 -9999 -9999 -9999 -9999 -9999 -9999 -9999 -9999 -9999 -9999 -9999 -9999 -9999 -9999 -9999 -9999 -9999 -9999 -9999 -9999 -9999 -9999 -9999 -9999 -9999 -9999 -9999 -9999 -9999 -9999 -9999 -9999 -9999 -9999 -9999 -9999 -9999 -9999 -9999 -9999 -9999 -9999 -9999 -9999 -9999 -9999 -9999
-9999 -9999 -9999 -9999 -9999 -9999 -9999 -9999 -9999 -9999 -9999 -9999 -9999 -9999 -9999 -9999 -9999 -9999 -9999 -9999 -9999 -9999 -9999 -9999 712 717 726 729 731 731 734 739 743 748 753 762 767 768 769 769 769 768 767 767 768 768 768 768 768 768 770 771 772 773 775 777 778 780 782 782 783 782 782 784 787 789 791 794 797 800 803 806 808 811 814 817 819 820 822 824 826 827 828 829 830 831 832 833 833 833 834 834 834 834 834 834 835 835 835 835 835 835 835 835 835 836 836 837 837 837 837 838 838 838 838 839 839 840 840 840 839 839 838 838 837 837 836 835 836 837 839 840 841 841 841 841 841 841 842 842 842 842 842 842 842 841 842 842 841 841 842 843 843 844 845 846 848 850 852 854 856 859 863 869 878 891 904 916 926 936 941 944 947 950 952 954 958 964 970 976 983 990 1002 1018 1036 1052 1064 1073 1083 1093 1105 1116 1128 1140 1154 1167 1180 1185 1175 1160 1148 1137 1125 1116 1108 1101 1095 1091 1090 1088 1085 1086 1095 1109 1121 1133 1146 1160 1155 1146 1141 1141 1141 1147 1138 1116 1095 1074 1056 1040 1025 1012 1005 1001 998 995 993 992 997 1009 1025 1036 1039 1035 1025 1019 1015 1012 1008 1005 1001 996 992 989 987 987 988 991 994 1000 1011 1026 1037 1046 1057 1068 1079 1090 1101 1112 1123 1137 1152 1171 1189 1203 1218 1235 1252 1271 1289 1307 1322 1333 1345 1355 1363 1369 1371 1372 1376 1383 1392 1405 1417 1424 1434 1447 1459 1473 1488 1501 1511 1523 1534 1545 1556 1568 1581 1594 1604 1614 1624 1633 1642 1651 1659 1666 1674 1681 1688 1694 1698 1702 1706 1711 1718 1725 1731 1735 1737 1735 -9999 -9999 -9999 -9999 -9999 -9999 -9999 -9999 -9999 -9999 -9999 -9999 -9999 -9999 -9999 -9999 -9999 -9999 -9999 -9999 -9999 -9999 -9999 -9999 -9999 -9999 -9999 -9999 -9999 -9999 -9999 -9999 -9999 -9999 -9999 -9999 -9999 -9999 -9999 -9999 -9999 -9999 -9999 -9999 -9999 -9999 -9999 -9999 -9999 -9999
-9999 -9999 -9999 -9999 -9999 -9999 -9999 -9999 -9999 -9999 -9999 -9999 -9999 -9999 -9999 -9999 -9999 -9999 -9999 -9999 -9999 -9999 -9999 -9999 -9999 -9999 718 723 726 730 733 736 740 744 750 758 766 768 768 769 769 768 767 766 768 768 768 767 767 768 769 770 771 771 772 774 777 779 780 780 781 779 780 783 785 787 790 793 795 799 802 805 807 809 812 816 818 819 822 824 826 828 829 829 830 831 832 832 833 833 833 833 834 834 834 834 834 835 835 835 835 835 835 835 835 835 835 836 836 836 836 836 837 837 837 837 837 838 839 838 838 837 837 836 835 834 832 832 834 836 838 840 841 841 841 840 841 841 841 841 841 841 841 841 841 840 840 840 839 840 840 841 842 842 843 843 846 848 850 852 855 858 862 866 876 888 902 914 921 928 933 935 938 941 944 948 954 959 966 974 981 988 998 1011 1029 1045 1055 1064 1073 1081 1090 1101 1113 1125 1137 1150 1163 1169 1160 1148 1135 1121 1109 1101 1094 1087 1082 1078 1076 1075 1071 1069 1075 1088 1102 1115 1130 1142 1132 1120 1118 1119 1121 1130 1127 1108 1087 1068 1047 1029 1015 1004 997 993 990 987 984 982 987 997 1011 1019 1021 1017 1009 1003 998 994 991 986 982 980 981 981 980 981 986 991 998 1008 1023 1039 1052 1064 1076 1086 1097 1108 1118 1128 1138 1150 1163 1180 1193 1206 1220 1235 1252 1272 1291 1309 1325 1337 1349 1359 1366 1374 1378 1379 1380 1384 1389 1400 1411 1419 1427 1440 1452 1465 1478 1492 1504 1516 1527 1539 1549 1561 1574 1587 1598 1608 1617 1625 1632 1640 1648 1656 1664 1671 1678 1684 1689 1694 1699 1703 1707 1714 1721 1727 1731 1731 1726 -9999 -9999 -9999 -9999 -9999 -9999 -9999 -9999 -9999 -9999 -9999 -9999 -9999 -9999 -9999 -9999 -9999 -9999 -9999 -9999 -9999 -9999 -9999 -9999 -9999 -9999 -9999 -9999 -9999 -9999 -9999 -9999 -9999 -9999 -9999 -9999 -9999 -9999 -9999 -9999 -9999 -9999 -9999 -9999 -9999 -9999 -9999 -9999 -9999
-9999 -9999 -9999 -9999 -9999 -9999 -9999 -9999 -9999 -9999 -9999 -9999 -9999 -9999 -9999 -9999 -9999 -9999 -9999 -9999 -9999 -9999 -9999 -9999 -9999 -9999 -9999 716 717 727 730 733 736 740 746 755 763 767 768 768 769 768 768 766 767 768 768 766 766 767 769 769 769 769 769 772 774 776 777 778 779 778 779 782 784 786 789 792 794 798 801 804 806 808 811 814 817 818 821 824 827 828 829 829 830 830 831 832 832 832 833 833 833 833 833 833 834 834 834 834 834 834 834 834 834 834 834 835 835 835 835 835 835 835 835 835 836 837 837 837 836 836 835 835 834 832 830 829 831 834 837 839 839 840 840 840 839 839 840 840 840 840 839 839 839 839 839 839 838 838 839 840 840 840 841 841 844 846 848 850 853 856 860 865 873 885 899 910 917 924 927 927 930 933 938 943 949 956 964 973 980 986 995 1006 1020 1036 1047 1055 1064 1072 1079 1088 1098 1110 1121 1133 1146 1152 1147 1137 1122 1108 1098 1090 1082 1075 1069 1065 1062 1059 1056 1056 1059 1067 1080 1094 1111 1121 1106 1095 1092 1092 1099 1113 1113 1096 1078 1059 1039 1020 1005 995 990 985 983 980 974 971 977 984 994 1001 1002 997 990 985 980 977 975 972 972 972 973 975 974 979 989 996 1005 1020 1036 1054 1071 1085 1097 1106 1116 1125 1134 1144 1155 1166 1181 1195 1203 1214 1227 1240 1255 1272 1292 1311 1328 1341 1353 1362 1369 1377 1380 1384 1387 1389 1392 1400 1408 1414 1423 1435 1447 1459 1472 1485 1497 1509 1520 1532 1543 1554 1566 1579 1590 1600 1608 1616 1622 1629 1636 1644 1652 1659 1667 1674 1680 1685 1691 1696 1700 1705 1711 1717 1723 1726 1724 -9999 -9999 -9999 -9999 -9999 -9999 -9999 -9999 -9999 -9999 -9999 -9999 -9999 -9999 -9999 -9999 -9999 -9999 -9999 -9999 -9999 -9999 -9999 -9999 -9999 -9999 -9999 -9999 -9999 -9999 -9999 -9999 -9999 -9999 -9999 -9999 -9999 -9999 -9999 -9999 -9999 -9999 -9999 -9999 -9999 -9999 -9999 -9999 -9999
-9999 -9999 -9999 -9999 -9999 -9999 -9999 -9999 -9999 -9999 -9999 -9999 -9999 -9999 -9999 -9999 -9999 -9999 -9999 -9999 -9999 -9999 -9999 -9999 -9999 -9999 -9999 -9999 -9999 720 724 729 731 736 742 752 760 766 768 769 769 768 768 765 766 767 767 766 766 766 768 769 768 767 768 770 772 773 774 775 776 777 779 781 783 785 788 790 792 796 799 802 804 806 810 813 815 817 820 823 826 828 828 829 830 830 831 831 832 832 832 832 832 833 833 833 834 834 834 834 834 833 833 833 833 833 833 834 834 834 834 834 834 834 834 834 834 835 835 835 835 835 834 833 833 832 830 828 830 832 834 837 838 838 838 838 838 838 838 838 838 838 837 837 837 837 836 836 837 837 837 838 838 839 839 840 842 844 846 849 852 855 859 863 869 880 893 902 909 914 917 920 922 927 932 938 945 953 962 971 978 984 992 1002 1014 1027 1037 1045 1054 1062 1070 1078 1085 1095 1106 1117 1129 1136 1135 1125 1109 1098 1088 1079 1071 1064 1057 1052 1049 1046 1043 1043 1046 1052 1061 1074 1092 1098 1082 1074 1070 1072 1082 1094 1094 1082 1067 1048 1029 1011 998 987 982 979 976 971 965 961 965 971 977 981 981 978 973 969 966 965 965 966 966 968 968 970 973 983 993 1003 1017 1032 1049 1071 1088 1102 1113 1123 1131 1140 1150 1160 1172 1186 1200 1211 1221 1230 1239 1249 1262 1277 1298 1316 1332 1345 1357 1365 1372 1378 1381 1387 1391 1394 1398 1403 1408 1412 1422 1433 1445 1455 1468 1480 1492 1503 1514 1525 1536 1547 1559 1570 1581 1589 1596 1604 1611 1618 1625 1632 1639 1646 1654 1662 1669 1675 1681 1687 1693 1698 1703 1709 1715 1721 1723 -9999 -9999 -9999 -9999 -9999 -9999 -9999 -9999 -9999 -9999 -9999 -9999 -9999 -9999 -9999 -9999 -9999 -9999 -9999 -9999 -9999 -9999 -9999 -9999 -9999 -9999 -9999 -9999 -9999 -9999 -9999 -9999 -9999 -9999 -9999 -9999 -9999 -9999 -9999 -9999 -9999 -9999 -9999 -9999 -9999 -9999 -9999 -9999 -9999
-9999 -9999 -9999 -9999 -9999 -9999 -9999 -9999 -9999 -9999 -9999 -9999 -9999 -9999 -9999 -9999 -9999 -9999 -9999 -9999 -9999 -9999 -9999 -9999 -9999 -9999 -9999 -9999 -9999 715 720 724 728 732 739 748 757 763 768 768 768 768 768 765 763 767 766 766 764 764 767 768 767 765 766 769 770 770 770 771 774 776 777 779 781 784 787 789 791 794 798 800 802 804 807 811 815 817 820 822 824 826 828 829 829 829 830 831 831 831 832 832 832 832 832 832 833 833 833 833 833 833 833 833 833 833 832 833 833 833 833 833 832 832 832 832 832 833 833 833 833 833 833 832 831 831 830 828 829 830 832 835 836 837 837 837 837 837 837 837 836 836 836 835 835 835 835 834 835 835 836 836 836 837 838 839 840 842 845 847 850 853 856 860 865 874 885 895 901 905 908 911 916 921 927 934 941 949 958 967 974 979 988 999 1010 1021 1030 1037 1044 1052 1060 1068 1075 1083 1092 1101 1111 1119 1118 1109 1098 1088 1078 1069 1060 1052 1045 1041 1037 1033 1031 1031 1034 1040 1048 1061 1078 1078 1061 1055 1052 1055 1067 1079 1079 1068 1053 1034 1018 1003 991 980 974 971 967 961 956 953 955 959 963 965 965 964 962 961 959 958 959 960 962 963 965 968 976 988 1000 1014 1029 1043 1062 1084 1100 1115 1126 1135 1144 1155 1166 1178 1190 1205 1220 1232 1239 1246 1254 1263 1275 1291 1308 1324 1338 1351 1359 1367 1372 1377 1381 1385 1389 1393 1399 1404 1409 1414 1423 1433 1443 1454 1465 1477 1488 1499 1509 1519 1529 1541 1551 1561 1571 1578 1584 1592 1598 1605 1611 1619 1626 1633 1641 1649 1656 1663 1671 1678 1685 1691 1697 1702 1709 1716 1721 1722 -9999 -9999 -9999 -9999 -9999 -9999 -9999 -9999 -9999 -9999 -9999 -9999 -9999 -9999 -9999 -9999 -9999 -9999 -9999 -9999 -9999 -9999 -9999 -9999 -9999 -9999 -9999 -9999 -9999 -9999 -9999 -9999 -9999 -9999 -9999 -9999 -9999 -9999 -9999 -9999 -9999 -9999 -9999 -9999 -9999 -9999 -9999 -9999
-9999 -9999 -9999 -9999 -9999 -9999 -9999 -9999 -9999 -9999 -9999 -9999 -9999 -9999 -9999 -9999 -9999 -9999 -9999 -9999 -9999 -9999 -9999 -9999 -9999 -9999 -9999 -9999 -9999 -9999 716 720 724 729 735 743 751 758 764 767 767 767 767 761 759 763 766 765 761 760 764 765 766 764 766 768 768 767 768 769 772 774 776 778 780 783 785 788 791 794 796 798 801 803 806 810 815 818 820 821 823 825 826 828 828 829 830 830 830 831 831 831 831 832 832 832 833 833 833 832 832 832 832 832 832 832 832 832 832 832 832 831 831 830 830 830 830 830 831 832 832 832 831 831 830 829 829 828 829 830 832 833 835 836 836 836 836 835 836 835 834 834 834 833 833 833 832 832 833 833 833 834 834 835 836 837 839 840 842 845 847 850 853 857 861 868 878 888 895 897 899 903 909 916 923 930 937 944 954 962 969 973 980 992 1004 1015 1024 1030 1035 1043 1052 1060 1067 1073 1080 1087 1095 1102 1102 1095 1087 1077 1066 1056 1047 1040 1033 1029 1025 1021 1019 1018 1021 1027 1037 1051 1065 1059 1042 1036 1036 1039 1048 1059 1061 1051 1036 1020 1008 996 984 973 964 960 956 952 948 946 947 949 952 954 955 955 955 955 955 955 956 957 959 960 962 970 982 996 1010 1026 1039 1054 1072 1089 1108 1124 1137 1148 1159 1172 1183 1195 1209 1223 1235 1246 1255 1262 1272 1283 1294 1306 1318 1329 1339 1349 1356 1362 1366 1371 1376 1381 1384 1388 1394 1403 1409 1416 1424 1434 1444 1454 1464 1476 1486 1496 1505 1515 1523 1534 1543 1552 1560 1566 1572 1578 1583 1590 1598 1605 1612 1621 1629 1636 1645 1652 1659 1667 1675 1682 1690 1697 1703 1711 1718 1722 -9999 -9999 -9999 -9999 -9999 -9999 -9999 -9999 -9999 -9999 -9999 -9999 -9999 -9999 -9999 -9999 -9999 -9999 -9999 -9999 -9999 -9999 -9999 -9999 -9999 -9999 -9999 -9999 -9999 -9999 -9999 -9999 -9999 -9999 -9999 -9999 -9999 -9999 -9999 -9999 -9999 -9999 -9999 -9999 -9999 -9999 -9999 -9999
-9999 -9999 -9999 -9999 -9999 -9999 -9999 -9999 -9999 -9999 -9999 -9999 -9999 -9999 -9999 -9999 -9999 -9999 -9999 -9999 -9999 -9999 -9999 -9999 -9999 -9999 -9999 -9999 -9999 -9999 -9999 717 722 726 731 738 745 752 759 763 765 764 764 759 756 759 761 761 759 756 759 761 762 764 764 766 766 766 768 770 771 773 775 777 779 781 784 787 790 793 794 796 799 802 805 809 814 818 819 820 822 824 825 826 827 829 830 830 830 830 831 831 831 831 831 832 832 832 832 831 831 831 831 831 831 831 831 831 831 831 831 830 830 830 829 828 828 829 830 831 830 830 830 830 829 828 828 828 829 830 831 833 834 834 835 835 834 834 835 834 833 832 832 831 831 831 830 830 831 831 831 832 832 832 833 835 837 838 840 842 845 848 850 853 858 864 872 883 890 891 891 895 903 910 918 925 933 940 948 959 965 968 973 982 995 1007 1017 1024 1029 1035 1044 1052 1059 1064 1069 1075 1081 1086 1087 1082 1074 1064 1054 1044 1034 1027 1022 1017 1013 1010 1008 1007 1008 1014 1025 1040 1049 1040 1026 1020 1018 1021 1030 1037 1038 1030 1018 1006 996 986 976 966 957 951 946 943 941 941 943 945 946 948 949 949 950 950 951 952 952 954 957 960 965 977 990 1006 1022 1036 1050 1064 1079 1094 1112 1130 1147 1161 1174 1185 1198 1213 1226 1236 1248 1259 1269 1282 1291 1296 1302 1308 1313 1321 1329 1337 1344 1349 1352 1356 1363 1370 1375 1380 1388 1400 1407 1415 1426 1435 1444 1454 1463 1476 1485 1493 1501 1509 1518 1526 1535 1542 1547 1553 1559 1565 1571 1577 1584 1592 1600 1609 1617 1625 1633 1642 1649 1657 1666 1675 1683 1691 1698 1706 1714 1721 1722 -9999 -9999 -9999 -9999 -9999 -9999 -9999 -9999 -9999 -9999 -9999 -9999 -9999 -9999 -9999 -9999 -9999 -9999 -9999 -9999 -9999 -9999 -9999 -9999 -9999 -9999 -9999 -9999 -9999 -9999 -9999 -9999 -9999 -9999 -9999 -9999 -9999 -9999 -9999 -9999 -9999 -9999 -9999 -9999 -9999 -9999 -9999
-9999 -9999 -9999 -9999 -9999 -9999 -9999 -9999 -9999 -9999 -9999 -9999 -9999 -9999 -9999 -9999 -9999 -9999 -9999 -9999 -9999 -9999 -9999 -9999 -9999 -9999 -9999 -9999 -9999 -9999 -9999 -9999 718 724 730 736 741 747 753 758 760 760 759 757 755 756 758 758 758 755 756 758 760 762 763 763 764 765 767 769 770 772 774 776 778 780 783 786 789 791 792 793 796 801 804 809 813 816 818 819 821 822 824 825 827 828 829 829 830 830 830 830 830 830 831 831 832 832 831 831 830 830 830 830 830 830 831 830 830 830 830 829 829 829 828 828 829 829 830 830 829 829 829 829 828 828 828 828 829 830 831 832 833 833 834 834 833 833 833 833 832 830 829 830 829 828 828 828 829 829 830 830 830 831 831 832 834 836 838 840 843 845 848 851 855 861 867 876 882 884 884 888 896 904 912 920 928 937 944 953 960 962 965 973 984 997 1008 1016 1021 1024 1033 1045 1052 1056 1060 1064 1068 1073 1075 1069 1061 1053 1044 1033 1024 1018 1012 1006 1002 999 998 997 999 1002 1010 1026 1033 1024 1011 1003 1000 1002 1005 1009 1009 1004 996 989 981 973 965 957 949 943 939 936 936 937 939 940 942 943 944 945 946 947 948 949 950 952 957 964 973 984 997 1013 1030 1044 1059 1073 1088 1103 1119 1138 1156 1171 1184 1196 1211 1226 1239 1251 1262 1274 1288 1295 1294 1294 1293 1295 1298 1304 1313 1322 1331 1333 1335 1338 1347 1356 1364 1372 1383 1395 1406 1414 1423 1434 1443 1453 1462 1474 1482 1490 1495 1501 1510 1518 1524 1529 1533 1538 1544 1550 1557 1564 1572 1580 1589 1598 1606 1615 1623 1632 1641 1650 1658 1668 1678 1687 1694 1702 1710 1719 1722 -9999 -9999 -9999 -9999 -9999 -9999 -9999 -9999 -9999 -9999 -9999 -9999 -9999 -9999 -9999 -9999 -9999 -9999 -9999 -9999 -9999 -9999 -9999 -9999 -9999 -9999 -9999 -9999 -9999 -9999 -9999 -9999 -9999 -9999 -9999 -9999 -9999 -9999 -9999 -9999 -9999 -9999 -9999 -9999 -9999 -9999 -9999
-9999 -9999 -9999 -9999 -9999 -9999 -9999 -9999 -9999 -9999 -9999 -9999 -9999 -9999 -9999 -9999 -9999 -9999 -9999 -9999 -9999 -9999 -9999 -9999 -9999 -9999 -9999 -9999 -9999 -9999 -9999 -9999 714 719 726 732 738 742 747 751 753 754 756 755 754 754 756 757 756 755 754 756 758 759 761 762 763 764 766 767 768 770 773 776 778 780 782 785 787 789 790 792 795 800 805 808 812 815 817 818 819 821 822 824 826 827 828 828 829 830 829 829 829 830 830 831 831 831 831 830 830 829 829 829 830 830 830 830 829 829 829 829 828 828 828 828 829 829 830 830 829 828 828 828 828 828 828 828 829 829 830 831 832 833 833 833 832 832 832 832 831 829 828 828 828 827 827 827 828 828 828 828 828 829 829 830 831 832 834 837 839 842 845 849 853 858 862 869 875 878 878 882 889 898 908 917 925 933 940 948 954 956 959 964 973 985 997 1007 1014 1018 1022 1034 1044 1050 1053 1055 1055 1060 1062 1058 1051 1044 1034 1023 1014 1008 1001 996 993 991 990 990 991 992 996 1006 1012 1004 992 984 981 981 982 983 982 979 975 971 966 960 953 946 940 935 933 932 932 933 935 936 938 938 939 940 942 944 946 948 950 953 960 969 979 989 1002 1016 1032 1047 1062 1077 1094 1110 1128 1147 1164 1177 1190 1205 1221 1236 1251 1264 1276 1286 1288 1288 1284 1281 1278 1279 1282 1288 1297 1307 1313 1316 1317 1321 1333 1347 1358 1368 1381 1393 1402 1410 1419 1429 1438 1447 1457 1468 1476 1484 1489 1493 1499 1505 1511 1516 1519 1523 1529 1535 1543 1550 1560 1569 1579 1589 1598 1607 1615 1624 1633 1643 1653 1663 1675 1683 1691 1699 1708 1718 1722 -9999 -9999 -9999 -9999 -9999 -9999 -9999 -9999 -9999 -9999 -9999 -9999 -9999 -9999 -9999 -9999 -9999 -9999 -9999 -9999 -9999 -9999 -9999 -9999 -9999 -9999 -9999 -9999 -9999 -9999 -9999 -9999 -9999 -9999 -9999 -9999 -9999 -9999 -9999 -9999 -9999 -9999 -9999 -9999 -9999 -9999 -9999
-9999 -9999 -9999 -9999 -9999 -9999 -9999 -9999 -9999 -9999 -9999 -9999 -9999 -9999 -9999 -9999 -9999 -9999 -9999 -9999 -9999 -9999 -9999 -9999 -9999 -9999 -9999 -9999 -9999 -9999 -9999 -9999 -9999 715 722 729 735 739 742 744 745 747 748 749 748 750 752 754 755 754 754 755 756 758 759 760 761 763 764 766 767 770 773 775 778 780 782 785 787 788 790 791 795 800 804 807 810 813 816 817 818 820 821 823 824 825 826 827 828 829 829 828 829 829 830 830 831 831 830 830 829 828 828 829 829 829 830 829 829 828 828 828 828 828 828 828 829 829 830 830 829 828 827 827 827 827 827 828 828 829 830 831 832 832 832 832 831 831 831 831 830 829 827 827 826 826 825 826 827 827 827 826 826 827 827 828 829 829 831 834 837 840 843 846 850 854 858 863 864 869 873 878 885 893 903 913 921 928 937 943 949 951 953 957 963 972 984 997 1008 1014 1014 1022 1035 1042 1046 1048 1044 1044 1050 1049 1042 1035 1024 1014 1005 996 990 985 983 982 981 981 982 982 981 983 984 979 972 965 963 963 964 964 963 961 959 956 952 948 943 937 932 928 927 927 928 929 931 932 934 935 936 937 939 941 944 947 949 955 963 972 982 992 1003 1016 1030 1044 1058 1073 1090 1109 1129 1149 1164 1178 1193 1209 1224 1237 1249 1259 1269 1275 1275 1271 1266 1261 1260 1261 1264 1270 1278 1289 1296 1298 1298 1306 1326 1344 1357 1368 1378 1388 1396 1404 1412 1421 1430 1439 1448 1458 1467 1475 1480 1485 1489 1492 1496 1500 1504 1509 1515 1521 1529 1539 1548 1558 1569 1579 1589 1599 1608 1617 1626 1637 1648 1660 1672 1681 1689 1697 1707 1717 1722 -9999 -9999 -9999 -9999 -9999 -9999 -9999 -9999 -9999 -9999 -9999 -9999 -9999 -9999 -9999 -9999 -9999 -9999 -9999 -9999 -9999 -9999 -9999 -9999 -9999 -9999 -9999 -9999 -9999 -9999 -9999 -9999 -9999 -9999 -9999 -9999 -9999 -9999 -9999 -9999 -9999 -9999 -9999 -9999 -9999 -9999 -9999
-9999 -9999 -9999 -9999 -9999 -9999 -9999 -9999 -9999 -9999 -9999 -9999 -9999 -9999 -9999 -9999 -9999 -9999 -9999 -9999 -9999 -9999 -9999 -9999 -9999 -9999 -9999 -9999 -9999 -9999 -9999 -9999 -9999 -9999 719 728 733 737 740 741 742 742 742 743 743 745 747 750 751 751 752 753 755 757 758 758 759 761 763 765 767 770 772 775 778 780 782 784 786 788 790 791 795 799 804 807 809 812 814 816 818 818 819 821 822 823 825 826 827 828 828 828 828 829 830 830 830 830 830 829 828 828 828 828 828 828 829 829 828 828 827 827 827 827 827 828 829 829 830 829 828 827 827 827 827 827 827 828 828 829 830 831 831 831 831 831 830 830 830 829 829 828 827 825 825 825 825 824 825 825 824 824 824 825 826 826 826 827 828 831 834 837 841 843 846 850 853 857 861 865 870 875 881 889 898 907 916 923 932 938 943 947 949 951 955 962 971 984 998 1008 1008 1011 1021 1032 1039 1041 1038 1032 1033 1036 1030 1023 1015 1005 993 984 978 975 973 972 971 972 973 973 970 967 965 960 956 952 951 951 951 951 950 948 946 944 942 939 935 929 925 923 923 924 925 926 927 928 930 932 935 936 938 941 943 945 949 955 964 973 983 993 1003 1014 1025 1037 1051 1066 1083 1101 1120 1141 1157 1171 1186 1202 1216 1227 1235 1243 1253 1259 1259 1253 1246 1242 1240 1242 1245 1252 1259 1268 1275 1279 1286 1301 1321 1338 1351 1362 1370 1379 1388 1395 1402 1410 1419 1428 1437 1445 1455 1463 1469 1472 1475 1477 1479 1482 1486 1492 1500 1508 1517 1527 1537 1547 1558 1569 1581 1592 1602 1612 1621 1633 1646 1658 1669 1680 1688 1696 1707 1716 1723 -9999 -9999 -9999 -9999 -9999 -9999 -9999 -9999 -9999 -9999 -9999 -9999 -9999 -9999 -9999 -9999 -9999 -9999 -9999 -9999 -9999 -9999 -9999 -9999 -9999 -9999 -9999 -9999 -9999 -9999 -9999 -9999 -9999 -9999 -9999 -9999 -9999 -9999 -9999 -9999 -9999 -9999 -9999 -9999 -9999 -9999 -9999
-9999 -9999 -9999 -9999 -9999 -9999 -9999 -9999 -9999 -9999 -9999 -9999 -9999 -9999 -9999 -9999 -9999 -9999 -9999 -9999 -9999 -9999 -9999 -9999 -9999 -9999 -9999 -9999 -9999 -9999 -9999 -9999 -9999 -9999 -9999 727 732 735 738 739 740 740 740 741 741 742 743 746 746 748 749 751 754 755 756 756 757 759 761 764 767 769 772 775 778 780 782 783 785 787 789 791 795 799 802 805 807 810 812 815 816 817 818 819 821 822 823 824 826 826 827 827 828 829 830 830 830 830 830 829 828 827 827 827 827 827 828 828 828 827 827 826 826 826 827 828 828 829 829 828 828 827 826 826 826 826 826 827 828 829 830 831 831 831 830 830 829 829 829 828 827 827 826 825 824 824 823 823 823 822 822 822 822 823 823 824 824 826 827 828 831 834 838 840 842 846 850 854 858 863 868 873 879 886 892 901 910 920 929 935 940 943 945 946 949 954 963 975 991 1001 1003 1001 1008 1019 1028 1032 1031 1025 1017 1016 1015 1011 1004 993 980 972 967 966 964 964 963 963 964 965 964 960 956 951 949 947 946 945 944 942 941 939 937 935 933 930 926 923 921 921 922 923 924 924 925 925 927 930 933 936 939 942 944 947 951 955 962 972 982 992 1001 1011 1021 1032 1044 1058 1075 1093 1112 1132 1148 1161 1174 1189 1203 1214 1221 1227 1234 1241 1241 1236 1229 1224 1222 1224 1228 1235 1242 1250 1258 1267 1280 1295 1309 1322 1334 1346 1357 1366 1373 1382 1391 1399 1407 1415 1423 1432 1440 1447 1453 1458 1460 1461 1464 1467 1472 1479 1488 1498 1507 1517 1531 1544 1556 1568 1579 1590 1600 1611 1621 1633 1646 1657 1669 1680 1689 1697 1708 1719 1727 1725 -9999 -9999 -9999 -9999 -9999 -9999 -9999 -9999 -9999 -9999 -9999 -9999 -9999 -9999 -9999 -9999 -9999 -9999 -9999 -9999 -9999 -9999 -9999 -9999 -9999 -9999 -9999 -9999 -9999 -9999 -9999 -9999 -9999 -9999 -9999 -9999 -9999 -9999 -9999 -9999 -9999 -9999 -9999 -9999 -9999 -9999
-9999 -9999 -9999 -9999 -9999 -9999 -9999 -9999 -9999 -9999 -9999 -9999 -9999 -9999 -9999 -9999 -9999 -9999 -9999 -9999 -9999 -9999 -9999 -9999 -9999 -9999 -9999 -9999 -9999 -9999 -9999 -9999 -9999 -9999 -9999 724 731 734 736 738 739 740 740 741 741 741 742 743 743 744 747 749 751 752 753 754 755 757 759 763 766 769 772 775 778 780 781 783 784 786 789 791 794 798 801 803 806 808 810 812 813 814 816 818 819 821 822 823 824 825 826 827 828 829 829 830 830 830 829 829 828 827 827 827 826 826 827 827 827 826 826 826 826 826 826 827 827 828 828 827 827 826 826 826 826 826 826 827 828 829 830 830 830 830 830 829 829 828 828 827 826 825 825 824 823 823 822 821 821 820 819 820 820 821 821 822 822 824 825 826 829 832 835 837 840 843 847 851 855 859 865 871 878 883 887 894 904 916 928 932 936 939 941 942 944 948 955 968 982 995 1000 996 999 1006 1015 1021 1021 1016 1005 998 998 995 989 979 968 962 958 957 956 956 956 957 958 958 958 956 951 948 945 943 941 939 936 935 933 931 929 926 923 922 921 919 919 920 921 922 923 924 925 927 930 934 936 940 942 946 948 953 957 961 964 972 981 991 999 1008 1018 1028 1038 1050 1068 1084 1102 1122 1139 1151 1161 1172 1186 1197 1206 1213 1219 1225 1226 1222 1212 1206 1206 1211 1218 1226 1231 1237 1243 1254 1265 1278 1291 1302 1313 1324 1334 1345 1355 1364 1373 1383 1392 1400 1407 1415 1423 1431 1437 1440 1442 1449 1455 1460 1467 1477 1489 1502 1514 1526 1538 1550 1562 1574 1585 1596 1607 1616 1628 1639 1649 1660 1671 1682 1691 1701 1711 1722 1731 1729 -9999 -9999 -9999 -9999 -9999 -9999 -9999 -9999 -9999 -9999 -9999 -9999 -9999 -9999 -9999 -9999 -9999 -9999 -9999 -9999 -9999 -9999 -9999 -9999 -9999 -9999 -9999 -9999 -9999 -9999 -9999 -9999 -9999 -9999 -9999 -9999 -9999 -9999 -9999 -9999 -9999 -9999 -9999 -9999 -9999 -9999
-9999 -9999 -9999 -9999 -9999 -9999 -9999 -9999 -9999 -9999 -9999 -9999 -9999 -9999 -9999 -9999 -9999 -9999 -9999 -9999 -9999 -9999 -9999 -9999 -9999 -9999 -9999 -9999 -9999 -9999 -9999 -9999 -9999 -9999 -9999 721 732 734 736 739 740 740 741 741 741 741 741 741 742 743 745 747 748 749 750 752 753 754 757 761 765 768 771 774 777 779 781 781 782 784 788 791 794 797 799 802 804 807 808 810 811 813 815 817 818 819 821 822 823 824 825 826 827 828 829 829 829 829 829 828 828 827 826 826 826 826 826 826 826 826 825 825 825 825 825 826 826 827 827 826 826 826 825 825 825 825 826 827 828 829 830 830 830 830 829 828 828 827 826 825 825 824 823 822 822 821 821 820 819 818 817 818 819 819 820 820 821 822 823 825 828 830 833 835 837 841 844 847 852 856 861 867 875 880 884 888 896 908 919 927 930 933 935 936 938 942 947 958 972 984 990 990 988 994 1003 1008 1009 1005 994 983 980 978 971 964 956 952 950 949 948 949 949 950 952 952 953 952 950 945 941 938 936 933 930 927 925 922 920 918 917 917 916 916 917 920 921 923 924 927 930 933 937 939 943 947 949 953 957 962 967 970 973 973 981 990 998 1006 1015 1024 1034 1045 1059 1078 1092 1109 1127 1138 1146 1155 1167 1178 1187 1195 1204 1210 1211 1208 1197 1192 1199 1211 1224 1234 1242 1246 1250 1255 1263 1271 1280 1291 1301 1310 1316 1325 1333 1342 1353 1362 1372 1382 1389 1397 1405 1412 1416 1423 1434 1447 1457 1465 1476 1488 1501 1513 1525 1536 1547 1558 1569 1581 1593 1604 1614 1625 1636 1646 1656 1666 1677 1687 1696 1706 1715 1724 1730 1730 -9999 -9999 -9999 -9999 -9999 -9999 -9999 -9999 -9999 -9999 -9999 -9999 -9999 -9999 -9999 -9999 -9999 -9999 -9999 -9999 -9999 -9999 -9999 -9999 -9999 -9999 -9999 -9999 -9999 -9999 -9999 -9999 -9999 -9999 -9999 -9999 -9999 -9999 -9999 -9999 -9999 -9999 -9999 -9999 -9999 -9999
-9999 -9999 -9999 -9999 -9999 -9999 -9999 -9999 -9999 -9999 -9999 -9999 -9999 -9999 -9999 -9999 -9999 -9999 -9999 -9999 -9999 -9999 -9999 -9999 -9999 -9999 -9999 -9999 -9999 -9999 -9999 -9999 -9999 -9999 -9999 719 732 733 737 741 741 742 742 741 741 741 741 742 742 742 743 745 745 746 747 749 751 753 755 759 764 767 770 772 774 778 778 779 779 781 787 791 793 795 798 800 803 805 806 808 809 811 813 816 818 819 820 821 822 822 823 825 826 828 828 828 829 828 828 827 827 826 826 825 825 825 825 825 825 825 825 824 824 824 824 825 825 826 826 825 825 825 824 824 824 825 826 827 828 829 829 829 829 829 829 828 827 826 825 824 823 822 821 821 820 820 820 819 819 818 816 816 817 818 817 817 819 820 822 824 826 828 830 832 835 838 841 843 847 852 858 863 870 877 881 885 889 896 906 914 921 926 929 930 933 936 940 948 960 970 979 980 977 982 990 995 997 993 981 970 965 960 952 949 945 942 942 942 942 943 944 945 946 947 948 948 946 942 938 934 931 928 923 919 917 915 913 912 912 913 914 915 918 920 923 925 929 933 937 941 946 951 955 958 961 965 969 973 978 980 982 983 986 989 997 1005 1014 1022 1031 1042 1053 1071 1086 1099 1112 1122 1130 1138 1149 1159 1168 1175 1182 1188 1192 1189 1181 1185 1201 1219 1235 1245 1254 1260 1266 1270 1275 1282 1289 1298 1307 1315 1320 1327 1332 1339 1348 1357 1364 1372 1379 1386 1390 1399 1411 1426 1441 1456 1468 1478 1490 1502 1514 1525 1535 1546 1557 1566 1578 1590 1602 1612 1622 1634 1645 1654 1663 1673 1684 1693 1702 1710 1717 1723 1727 1728 1723 -9999 -9999 -9999 -9999 -9999 -9999 -9999 -9999 -9999 -9999 -9999 -9999 -9999 -9999 -9999 -9999 -9999 -9999 -9999 -9999 -9999 -9999 -9999 -9999 -9999 -9999 -9999 -9999 -9999 -9999 -9999 -9999 -9999 -9999 -9999 -9999 -9999 -9999 -9999 -9999 -9999 -9999 -9999 -9999 -9999
-9999 -9999 -9999 -9999 -9999 -9999 -9999 -9999 -9999 -9999 -9999 -9999 -9999 -9999 -9999 -9999 -9999 -9999 -9999 -9999 -9999 -9999 -9999 -9999 -9999 -9999 -9999 -9999 -9999 -9999 -9999 -9999 -9999 -9999 -9999 719 731 734 738 743 743 743 743 741 741 741 742 742 742 742 742 742 743 743 744 746 749 751 754 758 763 767 769 771 773 775 776 777 778 780 785 789 792 794 796 799 801 803 804 805 807 809 812 815 817 818 819 820 820 821 821 823 824 826 827 827 828 828 827 826 826 825 825 824 824 824 824 824 824 824 824 824 823 823 823 823 824 825 824 824 824 824 824 824 824 824 825 827 828 828 828 828 827 828 828 827 826 824 823 822 821 820 820 819 819 819 819 819 818 818 816 816 816 816 816 816 817 818 820 821 823 825 827 829 831 834 837 840 844 850 855 860 865 872 878 882 885 887 891 899 907 914 919 922 925 929 932 937 945 954 963 966 966 971 977 981 985 983 971 959 953 947 940 935 934 935 935 936 936 937 939 940 942 943 943 943 942 939 936 932 928 922 916 913 911 910 910 910 911 912 915 918 921 923 927 931 936 940 946 952 959 966 971 974 976 979 982 984 987 989 991 992 993 995 996 1002 1012 1020 1029 1039 1049 1062 1074 1087 1097 1106 1115 1122 1131 1141 1151 1157 1162 1166 1168 1166 1172 1187 1206 1228 1242 1257 1269 1278 1285 1290 1294 1301 1309 1317 1325 1331 1336 1340 1348 1355 1363 1370 1377 1383 1389 1397 1404 1414 1426 1440 1455 1470 1481 1491 1503 1515 1525 1535 1545 1556 1564 1574 1588 1600 1610 1621 1632 1643 1653 1662 1671 1681 1691 1700 1707 1712 1715 1718 1721 1722 1723 -9999 -9999 -9999 -9999 -9999 -9999 -9999 -9999 -9999 -9999 -9999 -9999 -9999 -9999 -9999 -9999 -9999 -9999 -9999 -9999 -9999 -9999 -9999 -9999 -9999 -9999 -9999 -9999 -9999 -9999 -9999 -9999 -9999 -9999 -9999 -9999 -9999 -9999 -9999 -9999 -9999 -9999 -9999 -9999 -9999
-9999 -9999 -9999 -9999 -9999 -9999 -9999 -9999 -9999 -9999 -9999 -9999 -9999 -9999 -9999 -9999 -9999 -9999 -9999 -9999 -9999 -9999 -9999 -9999 -9999 -9999 -9999 -9999 -9999 -9999 -9999 -9999 -9999 -9999 -9999 -9999 727 735 739 744 746 746 745 744 744 743 743 743 742 742 742 742 742 742 743 744 746 749 754 758 761 765 768 770 772 773 775 776 777 779 783 787 790 792 795 796 799 800 802 803 805 807 810 813 816 818 818 819 819 819 820 820 822 824 825 825 827 826 826 825 825 824 824 824 823 823 824 824 823 823 823 823 822 822 822 822 823 824 824 823 823 823 823 823 823 823 824 825 827 826 826 826 826 826 826 825 824 823 822 820 819 818 818 818 817 817 817 817 817 817 816 815 815 815 814 815 815 816 818 819 821 823 824 826 828 832 835 838 842 847 852 858 862 867 875 880 882 884 886 888 891 897 903 909 914 920 924 928 934 941 946 952 954 958 963 968 974 974 964 951 943 937 930 926 927 929 930 930 931 933 934 935 937 938 939 939 939 936 932 928 922 915 911 909 909 909 910 910 912 914 917 921 924 928 934 939 944 949 956 965 974 980 984 987 989 992 994 996 997 999 1000 1000 1000 1000 1001 1003 1011 1018 1026 1036 1044 1055 1066 1075 1084 1092 1100 1109 1118 1127 1136 1143 1146 1147 1150 1159 1176 1194 1215 1235 1248 1269 1284 1295 1301 1307 1313 1319 1328 1335 1341 1346 1352 1359 1365 1372 1381 1388 1395 1401 1407 1414 1422 1432 1444 1457 1471 1484 1493 1504 1515 1525 1534 1544 1555 1564 1572 1585 1597 1608 1619 1631 1642 1651 1660 1670 1678 1687 1695 1702 1707 1709 1710 1711 1714 1716 1719 1717 -9999 -9999 -9999 -9999 -9999 -9999 -9999 -9999 -9999 -9999 -9999 -9999 -9999 -9999 -9999 -9999 -9999 -9999 -9999 -9999 -9999 -9999 -9999 -9999 -9999 -9999 -9999 -9999 -9999 -9999 -9999 -9999 -9999 -9999 -9999 -9999 -9999 -9999 -9999 -9999 -9999 -9999 -9999 -9999
-9999 -9999 -9999 -9999 -9999 -9999 -9999 -9999 -9999 -9999 -9999 -9999 -9999 -9999 -9999 -9999 -9999 -9999 -9999 -9999 -9999 -9999 -9999 -9999 -9999 -9999 -9999 -9999 -9999 -9999 -9999 -9999 -9999 -9999 -9999 -9999 725 734 739 743 746 747 748 748 748 747 746 745 744 743 742 742 742 742 742 742 744 747 752 757 760 763 766 769 770 772 773 775 776 779 781 785 788 790 792 794 796 798 800 802 804 807 809 811 814 817 817 818 818 818 818 818 819 820 822 824 825 825 825 824 824 823 823 823 822 822 823 823 822 822 822 822 822 822 822 822 823 823 823 822 822 822 822 822 822 822 822 824 824 824 824 824 824 824 823 823 822 821 820 819 818 816 816 816 816 816 816 816 816 815 814 813 813 813 813 813 814 814 815 817 819 820 822 824 826 829 832 836 840 845 850 855 859 863 872 878 880 882 882 883 886 889 892 895 899 906 912 918 925 930 934 938 942 946 951 955 962 966 959 945 932 926 923 922 922 924 925 925 926 928 929 931 932 934 935 935 934 931 928 923 916 911 908 908 908 909 910 911 914 917 921 925 930 935 941 946 951 958 967 977 985 992 996 999 1003 1005 1007 1008 1009 1010 1010 1010 1009 1009 1010 1012 1015 1019 1025 1032 1039 1047 1056 1066 1075 1083 1091 1099 1108 1116 1123 1129 1132 1137 1149 1164 1183 1203 1223 1240 1256 1277 1296 1307 1314 1322 1331 1339 1347 1353 1359 1365 1371 1377 1384 1393 1399 1406 1412 1419 1425 1433 1441 1451 1461 1474 1486 1495 1505 1516 1525 1535 1544 1554 1563 1572 1582 1594 1607 1618 1630 1641 1650 1660 1668 1676 1683 1690 1694 1697 1699 1700 1701 1701 1703 1705 1708 1710 1707 -9999 -9999 -9999 -9999 -9999 -9999 -9999 -9999 -9999 -9999 -9999 -9999 -9999 -9999 -9999 -9999 -9999 -9999 -9999 -9999 -9999 -9999 -9999 -9999 -9999 -9999 -9999 -9999 -9999 -9999 -9999 -9999 -9999 -9999 -9999 -9999 -9999 -9999 -9999 -9999 -9999 -9999 -9999
-9999 -9999 -9999 -9999 -9999 -9999 -9999 -9999 -9999 -9999 -9999 -9999 -9999 -9999 -9999 -9999 -9999 -9999 -9999 -9999 -9999 -9999 -9999 -9999 -9999 -9999 -9999 -9999 -9999 -9999 -9999 -9999 -9999 -9999 -9999 -9999 722 732 738 742 746 749 751 752 752 750 749 748 747 745 744 743 742 742 742 742 742 744 749 755 759 761 764 767 769 770 772 774 776 778 780 783 786 788 790 792 794 797 799 801 803 805 807 809 812 814 816 816 816 816 816 816 816 818 821 822 823 824 824 823 823 823 822 822 822 822 822 822 821 821 821 821 821 821 821 821 822 822 822 822 821 821 821 821 821 821 821 822 822 822 822 822 822 822 821 821 820 820 819 818 817 816 815 815 815 815 814 814 814 813 812 811 811 811 811 812 812 813 814 815 816 818 820 822 824 827 830 834 838 843 848 853 858 862 869 875 877 879 879 879 881 885 887 888 889 894 900 907 915 921 922 921 926 933 939 942 948 954 950 937 922 917 917 918 918 919 919 920 921 922 924 926 927 929 930 931 929 926 922 916 911 908 907 907 908 909 912 915 919 923 926 931 937 942 947 952 959 967 977 987 996 1006 1014 1019 1023 1024 1024 1024 1024 1024 1023 1023 1023 1023 1023 1023 1025 1027 1030 1034 1038 1044 1051 1058 1066 1076 1084 1092 1100 1107 1114 1121 1131 1144 1158 1173 1193 1213 1231 1245 1263 1284 1302 1315 1327 1339 1350 1358 1364 1370 1376 1382 1390 1398 1405 1411 1417 1424 1430 1437 1444 1450 1459 1468 1479 1489 1498 1507 1517 1526 1535 1544 1553 1563 1572 1582 1593 1605 1617 1629 1640 1650 1659 1668 1675 1681 1685 1686 1686 1686 1686 1686 1688 1689 1692 1696 1699 1703 1704 -9999 -9999 -9999 -9999 -9999 -9999 -9999 -9999 -9999 -9999 -9999 -9999 -9999 -9999 -9999 -9999 -9999 -9999 -9999 -9999 -9999 -9999 -9999 -9999 -9999 -9999 -9999 -9999 -9999 -9999 -9999 -9999 -9999 -9999 -9999 -9999 -9999 -9999 -9999 -9999 -9999 -9999 -9999
-9999 -9999 -9999 -9999 -9999 -9999 -9999 -9999 -9999 -9999 -9999 -9999 -9999 -9999 -9999 -9999 -9999 -9999 -9999 -9999 -9999 -9999 -9999 -9999 -9999 -9999 -9999 -9999 -9999 -9999 -9999 -9999 -9999 -9999 -9999 -9999 -9999 729 737 742 746 750 753 755 755 753 752 751 749 748 746 745 743 742 742 742 742 742 745 751 756 759 762 764 766 769 771 772 774 776 778 780 783 786 788 791 793 795 797 799 801 803 805 807 809 812 813 814 814 814 815 816 816 818 820 821 822 822 822 822 822 822 822 822 821 821 821 820 820 820 820 819 819 820 820 820 821 821 821 821 821 820 820 820 819 819 819 818 820 820 820 820 820 820 819 819 819 818 818 817 816 815 814 814 813 813 812 812 813 812 810 809 809 809 809 810 810 810 812 813 814 815 818 820 821 825 828 832 836 841 845 850 855 860 865 870 874 875 875 876 878 881 884 886 887 888 889 895 902 909 908 905 909 918 926 930 932 935 934 924 914 911 912 914 913 913 913 914 916 918 919 921 922 924 926 926 924 918 915 910 905 904 906 908 910 914 918 922 926 930 934 939 944 949 954 959 966 975 985 997 1011 1023 1032 1038 1042 1043 1044 1043 1041 1040 1039 1040 1039 1038 1038 1037 1037 1039 1041 1044 1048 1053 1057 1062 1068 1075 1083 1090 1096 1104 1114 1127 1142 1155 1168 1184 1203 1222 1238 1252 1272 1291 1308 1323 1341 1356 1366 1374 1380 1386 1394 1401 1408 1416 1422 1429 1435 1441 1448 1454 1461 1467 1475 1484 1492 1502 1511 1520 1528 1536 1545 1554 1563 1572 1582 1592 1604 1615 1627 1639 1649 1659 1667 1673 1678 1680 1680 1678 1676 1674 1673 1673 1675 1677 1681 1685 1690 1696 1699 1698 -9999 -9999 -9999 -9999 -9999 -9999 -9999 -9999 -9999 -9999 -9999 -9999 -9999 -9999 -9999 -9999 -9999 -9999 -9999 -9999 -9999 -9999 -9999 -9999 -9999 -9999 -9999 -9999 -9999 -9999 -9999 -9999 -9999 -9999 -9999 -9999 -9999 -9999 -9999 -9999 -9999 -9999
-9999 -9999 -9999 -9999 -9999 -9999 -9999 -9999 -9999 -9999 -9999 -9999 -9999 -9999 -9999 -9999 -9999 -9999 -9999 -9999 -9999 -9999 -9999 -9999 -9999 -9999 -9999 -9999 -9999 -9999 -9999 -9999 -9999 -9999 -9999 -9999 -9999 725 735 741 746 750 754 756 756 756 755 754 753 751 749 747 745 744 743 743 743 742 743 746 752 756 759 762 765 767 769 771 773 775 777 779 781 784 786 789 792 794 795 796 798 801 803 805 807 810 811 812 813 814 814 816 817 818 820 821 821 822 822 822 822 821 821 821 821 820 820 820 819 819 818 818 818 819 819 819 820 820 820 820 820 820 819 819 819 817 817 817 818 819 819 819 818 818 817 817 817 817 816 816 815 814 812 812 811 811 810 810 811 810 809 807 806 807 807 808 808 808 810 811 812 813 815 817 819 821 826 829 833 837 841 845 851 856 862 866 870 872 873 876 877 880 882 884 886 887 888 888 889 891 893 892 896 904 910 914 915 916 916 909 905 905 908 909 908 908 908 908 910 912 914 916 918 920 921 922 918 912 908 904 902 904 907 911 915 921 925 930 933 937 941 945 950 955 960 965 972 982 993 1007 1022 1036 1047 1057 1064 1066 1067 1064 1061 1058 1056 1056 1055 1054 1053 1052 1052 1052 1053 1055 1058 1061 1065 1069 1075 1082 1089 1095 1102 1111 1124 1138 1152 1165 1178 1196 1215 1232 1246 1261 1281 1300 1318 1337 1355 1370 1381 1389 1396 1404 1411 1418 1425 1432 1439 1446 1452 1459 1465 1471 1477 1483 1491 1499 1507 1516 1523 1530 1538 1546 1555 1564 1573 1582 1592 1603 1614 1626 1638 1648 1658 1667 1673 1676 1676 1674 1671 1668 1664 1661 1660 1660 1663 1666 1670 1675 1680 1686 1693 1696 -9999 -9999 -9999 -9999 -9999 -9999 -9999 -9999 -9999 -9999 -9999 -9999 -9999 -9999 -9999 -9999 -9999 -9999 -9999 -9999 -9999 -9999 -9999 -9999 -9999 -9999 -9999 -9999 -9999 -9999 -9999 -9999 -9999 -9999 -9999 -9999 -9999 -9999 -9999 -9999 -9999 -9999
-9999 -9999 -9999 -9999 -9999 -9999 -9999 -9999 -9999 -9999 -9999 -9999 -9999 -9999 -9999 -9999 -9999 -9999 -9999 -9999 -9999 -9999 -9999 -9999 -9999 -9999 -9999 -9999 -9999 -9999 -9999 -9999 -9999 -9999 -9999 -9999 -9999 722 733 740 744 749 753 757 758 757 757 757 755 753 752 750 748 747 745 745 744 743 742 743 746 752 756 759 762 765 767 769 771 773 775 777 779 782 784 787 789 791 792 794 795 798 801 804 807 808 809 811 812 814 815 817 818 818 819 820 820 821 821 821 821 821 821 821 820 820 820 819 818 817 817 817 818 818 818 818 819 820 820 820 819 819 819 818 818 817 816 816 818 818 818 818 817 817 816 816 816 816 815 814 813 812 811 810 810 809 808 808 808 808 807 806 804 805 806 806 806 806 807 808 810 811 813 814 816 817 821 826 829 833 837 841 847 853 859 864 868 871 873 876 878 879 881 883 885 886 887 887 887 889 889 889 890 893 895 898 900 901 902 900 899 900 903 903 903 903 903 902 904 905 908 911 913 916 917 917 914 908 903 901 902 907 911 916 922 928 932 936 940 943 946 951 956 961 966 971 979 989 1001 1016 1032 1047 1061 1077 1089 1092 1091 1087 1083 1079 1077 1076 1075 1074 1074 1072 1070 1069 1069 1069 1070 1071 1075 1080 1086 1092 1098 1105 1113 1124 1137 1150 1162 1175 1191 1209 1227 1241 1255 1272 1292 1312 1332 1353 1370 1383 1394 1403 1412 1420 1427 1433 1440 1447 1456 1464 1470 1476 1482 1488 1494 1500 1507 1514 1522 1527 1533 1540 1547 1556 1565 1575 1583 1593 1603 1613 1625 1636 1647 1657 1666 1671 1673 1671 1669 1666 1661 1656 1651 1647 1646 1646 1649 1653 1659 1664 1671 1677 1685 1691 -9999 -9999 -9999 -9999 -9999 -9999 -9999 -9999 -9999 -9999 -9999 -9999 -9999 -9999 -9999 -9999 -9999 -9999 -9999 -9999 -9999 -9999 -9999 -9999 -9999 -9999 -9999 -9999 -9999 -9999 -9999 -9999 -9999 -9999 -9999 -9999 -9999 -9999 -9999 -9999 -9999 -9999
-9999 -9999 -9999 -9999 -9999 -9999 -9999 -9999 -9999 -9999 -9999 -9999 -9999 -9999 -9999 -9999 -9999 -9999 -9999 -9999 -9999 -9999 -9999 -9999 -9999 -9999 -9999 -9999 -9999 -9999 -9999 -9999 -9999 -9999 -9999 -9999 -9999 -9999 732 738 743 748 753 756 759 758 758 758 757 755 755 753 751 750 748 747 746 745 743 742 742 746 753 757 760 762 765 768 770 772 774 775 778 780 782 784 787 789 790 791 793 795 798 802 805 807 808 809 811 813 816 817 817 818 818 819 820 820 820 820 820 820 820 820 820 819 819 818 818 817 816 817 817 817 818 818 819 819 819 819 819 818 818 818 817 816 815 815 817 817 817 817 816 815 815 815 815 814 813 813 812 811 810 809 807 806 805 806 807 807 806 805 803 803 804 805 805 803 804 806 808 809 811 812 813 815 818 822 826 830 834 839 846 852 858 862 867 870 873 875 878 879 880 882 883 885 885 886 887 888 888 888 888 888 889 889 890 893 895 895 896 896 897 898 898 898 898 898 899 899 902 905 908 910 911 911 909 903 900 901 906 910 915 922 929 934 938 941 944 947 951 958 963 968 972 979 987 997 1010 1026 1042 1055 1073 1092 1106 1112 1113 1110 1106 1102 1100 1098 1097 1095 1094 1093 1091 1090 1089 1088 1088 1089 1092 1096 1101 1105 1111 1119 1127 1139 1151 1162 1175 1189 1205 1223 1238 1251 1268 1287 1307 1328 1349 1368 1383 1396 1408 1419 1427 1435 1442 1449 1456 1465 1473 1480 1487 1494 1499 1505 1511 1516 1522 1528 1532 1537 1543 1550 1559 1568 1577 1586 1594 1604 1614 1623 1633 1644 1653 1660 1665 1667 1665 1662 1658 1653 1648 1643 1638 1635 1632 1632 1635 1639 1645 1653 1661 1669 1677 1684 1689 -9999 -9999 -9999 -9999 -9999 -9999 -9999 -9999 -9999 -9999 -9999 -9999 -9999 -9999 -9999 -9999 -9999 -9999 -9999 -9999 -9999 -9999 -9999 -9999 -9999 -9999 -9999 -9999 -9999 -9999 -9999 -9999 -9999 -9999 -9999 -9999 -9999 -9999 -9999 -9999 -9999
-9999 -9999 -9999 -9999 -9999 -9999 -9999 -9999 -9999 -9999 -9999 -9999 -9999 -9999 -9999 -9999 -9999 -9999 -9999 -9999 -9999 -9999 -9999 -9999 -9999 -9999 -9999 -9999 -9999 -9999 -9999 -9999 -9999 -9999 -9999 -9999 -9999 721 732 737 742 746 751 755 758 759 759 759 758 758 757 756 755 753 751 751 749 747 745 744 742 742 746 754 757 760 763 766 768 770 772 774 776 778 780 782 785 787 788 789 790 792 796 800 804 805 806 808 810 812 815 816 817 817 818 819 819 819 819 819 819 819 819 819 819 819 818 818 817 816 816 816 816 817 817 817 818 818 818 818 818 818 818 818 817 816 815 816 816 816 816 815 815 814 813 813 813 812 812 811 810 809 809 807 806 804 804 805 807 806 806 805 803 803 803 803 803 803 803 804 806 808 809 810 811 814 816 819 823 827 833 838 843 849 855 860 865 868 872 875 878 879 880 881 882 883 884 885 886 887 887 887 887 887 888 888 888 889 889 891 892 892 892 892 893 893 894 895 895 896 898 900 902 905 905 905 903 900 901 905 910 914 922 929 934 938 942 945 949 954 960 967 972 976 981 988 996 1007 1021 1035 1050 1062 1081 1101 1117 1127 1133 1133 1128 1123 1120 1117 1115 1114 1114 1113 1112 1112 1110 1110 1110 1110 1112 1115 1118 1122 1127 1135 1144 1155 1165 1177 1191 1204 1220 1235 1251 1265 1283 1304 1324 1344 1364 1382 1396 1410 1423 1433 1442 1448 1454 1462 1470 1478 1485 1492 1499 1507 1513 1518 1524 1529 1534 1537 1543 1549 1554 1561 1569 1577 1586 1594 1603 1612 1622 1631 1638 1645 1649 1653 1655 1656 1655 1651 1646 1641 1636 1631 1626 1623 1619 1618 1619 1625 1633 1642 1650 1660 1669 1678 1685 -9999 -9999 -9999 -9999 -9999 -9999 -9999 -9999 -9999 -9999 -9999 -9999 -9999 -9999 -9999 -9999 -9999 -9999 -9999 -9999 -9999 -9999 -9999 -9999 -9999 -9999 -9999 -9999 -9999 -9999 -9999 -9999 -9999 -9999 -9999 -9999 -9999 -9999 -9999 -9999 -9999
-9999 -9999 -9999 -9999 -9999 -9999 -9999 -9999 -9999 -9999 -9999 -9999 -9999 -9999 -9999 -9999 -9999 -9999 -9999 -9999 -9999 -9999 -9999 -9999 -9999 -9999 -9999 -9999 -9999 -9999 -9999 -9999 -9999 -9999 -9999 -9999 -9999 720 730 735 740 744 747 752 757 759 759 760 760 760 760 759 758 756 754 753 752 749 748 746 744 742 742 746 753 758 760 763 766 768 771 773 774 776 778 780 783 785 786 787 789 791 794 798 801 803 805 806 808 810 813 815 816 817 817 818 818 818 818 819 819 819 819 819 818 818 818 817 817 816 815 815 815 816 816 816 817 817 818 817 817 817 817 817 817 816 815 815 814 814 813 813 813 812 811 811 811 811 810 809 809 808 807 807 805 803 804 805 806 806 805 804 802 801 801 802 802 801 802 803 805 806 807 808 810 812 814 817 820 824 829 835 840 846 852 857 863 867 871 875 878 879 880 881 882 883 884 884 885 886 886 886 886 886 887 887 887 887 888 888 889 889 889 889 889 889 890 891 891 893 894 896 898 899 900 900 900 901 905 910 915 921 928 933 939 944 947 952 957 965 972 978 983 987 993 999 1007 1019 1033 1047 1059 1073 1092 1111 1129 1142 1153 1156 1153 1148 1145 1141 1140 1139 1137 1136 1136 1135 1134 1133 1132 1131 1132 1135 1139 1143 1148 1155 1163 1173 1183 1195 1205 1219 1234 1249 1266 1281 1299 1319 1341 1360 1377 1394 1409 1421 1430 1439 1446 1450 1453 1456 1459 1466 1474 1484 1494 1504 1511 1517 1523 1531 1536 1537 1543 1548 1554 1561 1569 1578 1585 1594 1605 1615 1623 1631 1636 1639 1641 1642 1643 1643 1642 1639 1635 1630 1625 1620 1615 1610 1606 1604 1604 1609 1618 1630 1640 1650 1660 1670 1680 1689 -9999 -9999 -9999 -9999 -9999 -9999 -9999 -9999 -9999 -9999 -9999 -9999 -9999 -9999 -9999 -9999 -9999 -9999 -9999 -9999 -9999 -9999 -9999 -9999 -9999 -9999 -9999 -9999 -9999 -9999 -9999 -9999 -9999 -9999 -9999 -9999 -9999 -9999 -9999 -9999
-9999 -9999 -9999 -9999 -9999 -9999 -9999 -9999 -9999 -9999 -9999 -9999 -9999 -9999 -9999 -9999 -9999 -9999 -9999 -9999 -9999 -9999 -9999 -9999 -9999 -9999 -9999 -9999 -9999 -9999 -9999 -9999 -9999 -9999 -9999 -9999 -9999 718 728 733 737 740 743 747 753 756 758 760 761 761 762 764 766 765 762 758 754 752 751 749 746 744 742 742 746 755 758 761 764 767 769 771 773 775 777 779 781 783 784 786 788 790 793 796 799 801 803 804 807 808 811 813 815 816 816 817 817 817 818 818 818 818 818 818 818 818 818 817 816 816 815 814 814 815 815 815 816 816 816 816 816 816 816 816 815 815 814 813 812 811 811 811 810 810 809 809 809 809 809 808 807 806 806 806 805 803 804 805 804 804 804 803 801 800 800 800 800 800 801 802 803 804 804 805 808 810 812 814 816 820 826 831 837 843 849 855 860 865 869 874 877 878 879 880 881 882 883 883 884 885 885 885 885 885 885 885 885 886 886 886 886 886 886 886 886 886 886 887 888 889 890 891 893 895 894 895 899 903 909 915 922 928 933 938 945 950 956 964 972 979 986 994 1001 1005 1009 1015 1023 1034 1047 1061 1074 1090 1106 1125 1143 1158 1172 1179 1178 1175 1172 1169 1167 1165 1163 1162 1161 1160 1160 1159 1158 1158 1159 1161 1163 1166 1172 1178 1186 1194 1204 1212 1221 1235 1248 1264 1281 1298 1315 1338 1357 1374 1391 1403 1408 1412 1418 1425 1434 1436 1436 1437 1442 1450 1459 1469 1480 1491 1500 1507 1514 1519 1523 1526 1530 1535 1543 1552 1560 1569 1577 1585 1596 1607 1615 1623 1628 1630 1631 1631 1631 1631 1630 1627 1622 1618 1614 1608 1601 1595 1591 1588 1588 1594 1603 1614 1628 1641 1652 1662 1674 1684 -9999 -9999 -9999 -9999 -9999 -9999 -9999 -9999 -9999 -9999 -9999 -9999 -9999 -9999 -9999 -9999 -9999 -9999 -9999 -9999 -9999 -9999 -9999 -9999 -9999 -9999 -9999 -9999 -9999 -9999 -9999 -9999 -9999 -9999 -9999 -9999 -9999 -9999 -9999 -9999
-9999 -9999 -9999 -9999 -9999 -9999 -9999 -9999 -9999 -9999 -9999 -9999 -9999 -9999 -9999 -9999 -9999 -9999 -9999 -9999 -9999 -9999 -9999 -9999 -9999 -9999 -9999 -9999 -9999 -9999 -9999 -9999 -9999 -9999 -9999 -9999 -9999 716 724 731 734 736 739 742 747 753 757 759 762 763 764 766 768 770 769 766 760 755 754 752 749 747 744 742 743 750 756 759 762 765 767 769 771 773 775 777 780 781 782 784 786 789 792 795 797 799 801 803 805 807 808 810 812 813 814 815 816 817 817 817 818 818 818 818 817 817 817 817 816 815 814 814 814 814 814 814 815 815 815 815 815 815 815 815 813 812 812 811 810 809 808 808 808 807 807 807 807 808 807 806 805 805 805 805 804 803 803 803 802 801 801 801 800 799 799 799 799 799 800 801 802 802 803 804 806 808 810 813 815 818 823 829 835 841 847 853 858 863 868 871 875 878 879 880 881 881 882 882 883 884 884 884 884 884 883 883 883 883 883 883 883 883 883 883 883 883 884 884 885 886 887 888 890 891 890 891 898 906 913 919 927 933 939 946 954 961 970 979 988 998 1008 1016 1023 1026 1029 1034 1041 1051 1063 1076 1091 1104 1121 1140 1157 1175 1190 1200 1201 1200 1196 1193 1193 1191 1190 1188 1186 1185 1183 1182 1181 1181 1182 1183 1186 1190 1195 1202 1209 1215 1221 1229 1239 1251 1265 1281 1297 1314 1335 1355 1372 1385 1393 1395 1394 1395 1401 1407 1415 1417 1416 1416 1423 1432 1441 1452 1464 1476 1485 1494 1500 1506 1510 1513 1516 1522 1529 1537 1547 1557 1566 1575 1584 1596 1604 1612 1617 1619 1619 1619 1617 1615 1612 1610 1607 1606 1602 1594 1586 1580 1575 1571 1573 1579 1589 1602 1615 1631 1644 1655 1666 1677 -9999 -9999 -9999 -9999 -9999 -9999 -9999 -9999 -9999 -9999 -9999 -9999 -9999 -9999 -9999 -9999 -9999 -9999 -9999 -9999 -9999 -9999 -9999 -9999 -9999 -9999 -9999 -9999 -9999 -9999 -9999 -9999 -9999 -9999 -9999 -9999 -9999 -9999 -9999 -9999
-9999 -9999 -9999 -9999 -9999 -9999 -9999 -9999 -9999 -9999 -9999 -9999 -9999 -9999 -9999 -9999 -9999 -9999 -9999 -9999 -9999 -9999 -9999 -9999 -9999 -9999 -9999 -9999 -9999 -9999 -9999 -9999 -9999 -9999 -9999 -9999 -9999 -9999 720 727 731 733 735 739 743 748 753 758 762 764 765 767 770 774 775 772 766 761 758 755 753 751 747 744 743 745 752 757 759 763 765 767 769 771 773 776 777 779 780 782 784 787 790 793 796 797 799 801 803 805 806 808 809 810 811 813 814 815 816 817 817 817 817 817 816 817 816 816 815 814 813 813 813 813 813 813 814 814 814 814 813 813 813 813 811 810 810 809 808 806 806 806 806 805 805 806 806 807 806 806 805 803 803 803 803 801 800 800 799 799 798 798 797 797 797 797 797 797 798 800 800 801 802 803 805 807 809 811 813 817 822 827 833 838 844 850 856 862 866 869 873 876 878 879 880 880 881 882 882 883 884 883 883 882 882 881 881 881 881 881 881 880 880 879 879 880 881 881 882 883 884 885 887 888 888 891 898 907 915 923 930 938 946 954 962 971 981 993 1004 1014 1024 1032 1039 1043 1047 1050 1056 1066 1079 1093 1105 1120 1138 1155 1172 1191 1207 1217 1223 1226 1223 1218 1222 1221 1220 1217 1214 1210 1205 1202 1199 1199 1201 1204 1208 1213 1218 1223 1229 1234 1240 1248 1258 1270 1284 1298 1314 1333 1353 1368 1379 1382 1382 1378 1376 1378 1383 1392 1397 1398 1397 1400 1408 1417 1425 1435 1446 1459 1469 1478 1484 1488 1492 1495 1499 1508 1517 1524 1533 1544 1554 1563 1573 1582 1592 1600 1604 1606 1605 1603 1601 1597 1595 1592 1590 1590 1586 1579 1571 1564 1560 1556 1559 1566 1576 1589 1603 1617 1635 1648 1659 1670 -9999 -9999 -9999 -9999 -9999 -9999 -9999 -9999 -9999 -9999 -9999 -9999 -9999 -9999 -9999 -9999 -9999 -9999 -9999 -9999 -9999 -9999 -9999 -9999 -9999 -9999 -9999 -9999 -9999 -9999 -9999 -9999 -9999 -9999 -9999 -9999 -9999 -9999 -9999 -9999
-9999 -9999 -9999 -9999 -9999 -9999 -9999 -9999 -9999 -9999 -9999 -9999 -9999 -9999 -9999 -9999 -9999 -9999 -9999 -9999 -9999 -9999 -9999 -9999 -9999 -9999 -9999 -9999 -9999 -9999 -9999 -9999 -9999 -9999 -9999 -9999 -9999 -9999 717 722 727 729 732 735 740 745 751 756 761 765 767 769 772 777 780 776 770 765 761 759 757 755 752 748 744 743 746 753 758 760 763 765 767 769 771 773 775 777 778 779 781 784 788 791 794 795 797 799 802 803 804 806 806 807 809 810 811 812 814 815 816 816 816 816 816 815 815 814 814 813 812 812 811 811 811 811 812 812 812 812 812 812 811 811 810 808 808 807 806 804 804 804 804 803 804 805 805 806 805 805 805 802 801 800 800 797 797 796 795 795 796 795 795 795 795 795 795 795 797 798 799 800 801 802 804 805 807 809 812 815 819 824 829 835 841 847 853 858 863 867 870 874 876 878 879 879 880 881 881 882 883 883 882 881 880 879 879 879 879 880 879 878 877 877 877 877 878 879 879 881 882 883 885 887 888 891 898 907 916 925 934 943 952 960 968 977 988 999 1012 1024 1033 1041 1047 1054 1061 1066 1072 1081 1094 1108 1122 1138 1154 1169 1187 1204 1217 1227 1237 1244 1246 1250 1253 1251 1249 1247 1242 1235 1228 1224 1221 1221 1223 1227 1231 1235 1240 1244 1249 1254 1260 1269 1280 1291 1302 1315 1330 1347 1360 1366 1368 1367 1363 1358 1358 1361 1368 1377 1380 1379 1380 1384 1393 1401 1410 1420 1430 1442 1452 1459 1465 1467 1470 1474 1481 1490 1502 1512 1521 1531 1541 1551 1560 1570 1580 1587 1591 1592 1591 1588 1585 1582 1578 1575 1573 1574 1572 1565 1556 1547 1543 1543 1548 1556 1565 1577 1591 1606 1622 1640 1652 1662 1674 -9999 -9999 -9999 -9999 -9999 -9999 -9999 -9999 -9999 -9999 -9999 -9999 -9999 -9999 -9999 -9999 -9999 -9999 -9999 -9999 -9999 -9999 -9999 -9999 -9999 -9999 -9999 -9999 -9999 -9999 -9999 -9999 -9999 -9999 -9999 -9999 -9999 -9999 -9999
-9999 -9999 -9999 -9999 -9999 -9999 -9999 -9999 -9999 -9999 -9999 -9999 -9999 -9999 -9999 -9999 -9999 -9999 -9999 -9999 -9999 -9999 -9999 -9999 -9999 -9999 -9999 -9999 -9999 -9999 -9999 -9999 -9999 -9999 -9999 -9999 -9999 -9999 714 719 724 726 729 733 738 742 747 753 759 764 768 771 774 778 781 779 773 767 763 762 762 759 755 750 746 744 746 752 756 758 761 763 765 768 770 772 773 775 776 777 779 782 785 788 791 793 795 797 799 800 802 803 803 804 806 807 809 810 812 812 813 814 814 814 814 814 813 813 812 812 811 811 810 810 810 810 811 811 811 811 810 811 810 809 808 807 806 805 804 803 803 802 802 803 804 803 803 804 803 802 802 800 799 798 797 794 795 794 792 793 795 793 793 793 794 794 794 794 795 796 798 799 800 801 802 803 804 807 809 813 816 820 825 831 837 842 850 856 860 865 868 872 876 878 878 878 879 880 881 882 882 882 882 881 879 878 878 878 878 878 878 877 876 876 876 876 876 876 877 878 879 881 882 885 887 890 897 907 918 929 940 949 959 968 976 986 996 1006 1019 1030 1038 1044 1050 1059 1068 1077 1085 1095 1108 1122 1137 1152 1166 1180 1197 1211 1222 1231 1237 1241 1242 1245 1246 1246 1248 1251 1253 1252 1249 1246 1244 1243 1244 1249 1252 1253 1254 1257 1261 1268 1273 1281 1289 1298 1309 1322 1336 1345 1348 1349 1350 1349 1344 1339 1341 1347 1355 1362 1364 1362 1361 1366 1375 1384 1394 1404 1414 1426 1436 1441 1443 1445 1448 1453 1463 1477 1487 1497 1508 1517 1528 1538 1549 1559 1567 1575 1579 1579 1577 1574 1571 1567 1563 1560 1557 1558 1558 1552 1541 1531 1527 1528 1535 1546 1555 1566 1580 1595 1610 1628 1644 1656 1668 1674 -9999 -9999 -9999 -9999 -9999 -9999 -9999 -9999 -9999 -9999 -9999 -9999 -9999 -9999 -9999 -9999 -9999 -9999 -9999 -9999 -9999 -9999 -9999 -9999 -9999 -9999 -9999 -9999 -9999 -9999 -9999 -9999 -9999 -9999 -9999 -9999 -9999 -9999
-9999 -9999 -9999 -9999 -9999 -9999 -9999 -9999 -9999 -9999 -9999 -9999 -9999 -9999 -9999 -9999 -9999 -9999 -9999 -9999 -9999 -9999 -9999 -9999 -9999 -9999 -9999 -9999 -9999 -9999 -9999 -9999 -9999 -9999 -9999 -9999 -9999 -9999 -9999 716 722 724 727 731 735 739 743 748 755 762 768 771 775 779 781 780 774 768 765 765 766 762 757 749 744 745 747 751 754 757 759 761 764 766 769 770 771 773 774 775 777 779 782 785 788 791 793 795 796 797 798 799 800 802 803 805 806 808 809 810 810 811 812 812 812 812 812 811 811 810 810 809 809 809 809 809 810 810 810 810 809 809 809 808 806 805 804 804 803 802 801 801 801 802 803 801 801 801 800 798 798 797 796 796 794 792 793 792 792 792 794 792 791 792 792 793 792 792 794 795 796 797 798 800 801 801 802 805 808 810 813 816 821 827 833 838 845 853 857 862 866 870 874 876 877 878 879 879 880 881 881 882 882 881 878 878 878 878 878 877 877 876 876 876 876 876 876 876 876 876 877 878 880 882 885 888 896 906 919 933 945 959 969 979 990 1000 1010 1019 1026 1033 1040 1045 1051 1059 1068 1078 1088 1099 1114 1129 1144 1157 1170 1183 1198 1211 1221 1226 1229 1231 1232 1230 1227 1228 1231 1235 1241 1249 1256 1263 1266 1265 1261 1257 1253 1250 1250 1251 1253 1256 1261 1269 1278 1289 1304 1319 1329 1331 1329 1329 1331 1331 1327 1323 1324 1331 1340 1344 1344 1343 1345 1351 1359 1368 1378 1389 1400 1411 1420 1423 1423 1424 1427 1437 1448 1462 1474 1484 1494 1504 1515 1526 1538 1548 1557 1564 1567 1566 1562 1557 1553 1549 1545 1542 1541 1544 1546 1539 1527 1519 1514 1515 1522 1533 1544 1556 1568 1583 1599 1615 1633 1649 1660 1670 1672 -9999 -9999 -9999 -9999 -9999 -9999 -9999 -9999 -9999 -9999 -9999 -9999 -9999 -9999 -9999 -9999 -9999 -9999 -9999 -9999 -9999 -9999 -9999 -9999 -9999 -9999 -9999 -9999 -9999 -9999 -9999 -9999 -9999 -9999 -9999 -9999 -9999
-9999 -9999 -9999 -9999 -9999 -9999 -9999 -9999 -9999 -9999 -9999 -9999 -9999 -9999 -9999 -9999 -9999 -9999 -9999 -9999 -9999 -9999 -9999 -9999 -9999 -9999 -9999 -9999 -9999 -9999 -9999 -9999 -9999 -9999 -9999 -9999 -9999 -9999 -9999 713 719 723 726 729 733 736 737 743 750 757 765 770 774 778 780 780 775 769 766 766 766 764 759 749 743 744 746 749 752 755 757 759 761 763 766 768 770 771 772 773 776 778 780 782 785 788 790 792 793 794 795 796 797 799 801 802 804 805 806 807 808 809 809 810 810 810 810 810 809 809 809 808 808 808 808 807 808 808 808 808 808 808 807 807 805 804 803 802 801 801 800 799 799 799 800 799 798 797 796 795 794 793 794 794 793 791 791 791 791 791 792 791 790 790 791 792 791 791 793 795 796 796 797 798 799 800 801 803 805 807 810 814 818 823 828 835 841 848 853 858 863 868 871 874 877 878 878 878 879 880 881 881 881 881 879 878 878 878 877 877 876 876 876 876 876 876 876 876 876 876 876 877 877 880 884 888 895 906 920 937 951 963 976 990 1002 1013 1023 1028 1033 1037 1042 1046 1051 1057 1064 1072 1081 1094 1109 1126 1142 1155 1168 1181 1194 1207 1213 1213 1212 1214 1217 1211 1207 1207 1211 1215 1222 1232 1242 1252 1259 1262 1256 1248 1240 1234 1232 1233 1235 1238 1243 1252 1265 1279 1297 1312 1318 1315 1312 1310 1311 1313 1311 1306 1306 1313 1323 1327 1324 1322 1327 1336 1345 1354 1365 1377 1388 1396 1401 1402 1402 1402 1408 1420 1434 1448 1461 1472 1482 1492 1504 1516 1528 1538 1546 1552 1554 1551 1544 1537 1532 1528 1525 1524 1524 1529 1532 1527 1517 1508 1502 1504 1512 1522 1534 1546 1557 1571 1588 1604 1621 1638 1651 1662 1668 -9999 -9999 -9999 -9999 -9999 -9999 -9999 -9999 -9999 -9999 -9999 -9999 -9999 -9999 -9999 -9999 -9999 -9999 -9999 -9999 -9999 -9999 -9999 -9999 -9999 -9999 -9999 -9999 -9999 -9999 -9999 -9999 -9999 -9999 -9999 -9999 -9999
-9999 -9999 -9999 -9999 -9999 -9999 -9999 -9999 -9999 -9999 -9999 -9999 -9999 -9999 -9999 -9999 -9999 -9999 -9999 -9999 -9999 -9999 -9999 -9999 -9999 -9999 -9999 -9999 -9999 -9999 -9999 -9999 -9999 -9999 -9999 -9999 -9999 -9999 -9999 -9999 715 720 724 727 731 733 732 739 746 754 761 768 772 776 778 778 773 768 766 766 765 763 761 755 745 743 744 746 749 752 755 757 758 761 763 765 767 769 770 771 773 775 777 780 783 785 787 789 790 792 792 793 795 796 798 799 801 803 804 805 806 806 807 808 808 809 808 808 808 808 808 807 807 806 806 806 807 807 807 807 807 807 807 806 805 803 802 801 800 799 798 797 797 797 797 796 795 795 794 793 792 792 793 793 793 791 789 790 790 790 790 790 789 789 790 791 790 791 793 794 794 794 795 796 797 798 799 801 803 804 807 811 815 820 825 831 837 843 849 855 860 865 869 872 875 877 877 878 879 880 881 881 881 880 879 878 878 877 877 876 876 876 876 876 876 876 876 876 876 876 876 876 877 879 883 887 893 905 920 939 954 965 974 989 1001 1013 1023 1030 1037 1039 1041 1044 1050 1054 1059 1065 1074 1088 1104 1121 1137 1151 1164 1177 1190 1201 1201 1194 1190 1193 1198 1195 1187 1185 1188 1195 1204 1215 1226 1237 1243 1245 1242 1236 1227 1219 1216 1216 1219 1222 1229 1241 1257 1272 1290 1303 1306 1300 1293 1291 1293 1296 1296 1290 1288 1295 1307 1310 1306 1303 1308 1318 1327 1337 1350 1365 1375 1381 1383 1383 1382 1383 1391 1404 1419 1434 1449 1461 1472 1483 1495 1509 1521 1531 1538 1542 1542 1536 1527 1518 1512 1509 1506 1506 1510 1517 1521 1517 1508 1497 1489 1492 1499 1510 1522 1534 1547 1560 1576 1593 1610 1626 1640 1652 1662 1665 -9999 -9999 -9999 -9999 -9999 -9999 -9999 -9999 -9999 -9999 -9999 -9999 -9999 -9999 -9999 -9999 -9999 -9999 -9999 -9999 -9999 -9999 -9999 -9999 -9999 -9999 -9999 -9999 -9999 -9999 -9999 -9999 -9999 -9999 -9999 -9999
-9999 -9999 -9999 -9999 -9999 -9999 -9999 -9999 -9999 -9999 -9999 -9999 -9999 -9999 -9999 -9999 -9999 -9999 -9999 -9999 -9999 -9999 -9999 -9999 -9999 -9999 -9999 -9999 -9999 -9999 -9999 -9999 -9999 -9999 -9999 -9999 -9999 -9999 -9999 -9999 -9999 718 721 725 728 730 731 737 743 750 758 766 770 773 777 778 775 768 766 767 767 765 767 763 751 744 743 744 746 750 753 754 756 758 759 762 764 766 768 769 770 773 775 778 780 782 785 786 788 789 790 791 792 794 795 796 798 800 801 802 804 805 806 806 806 807 807 807 807 807 806 806 805 805 805 805 806 806 806 806 806 806 806 805 804 802 801 800 799 798 796 795 794 794 794 794 794 793 792 791 791 790 791 791 791 791 789 788 788 788 788 787 787 786 787 788 789 790 792 793 793 793 793 794 795 796 798 800 801 802 805 809 813 816 821 827 833 840 846 851 857 862 867 869 872 874 876 877 879 880 880 881 880 880 879 878 878 878 877 876 876 876 876 876 876 876 876 876 876 876 876 876 877 879 882 886 892 904 917 935 950 960 969 980 992 1005 1016 1026 1034 1036 1035 1037 1045 1050 1052 1056 1066 1082 1099 1116 1133 1146 1159 1172 1186 1193 1187 1174 1169 1172 1180 1176 1167 1162 1165 1174 1186 1199 1210 1221 1228 1229 1225 1220 1211 1203 1200 1202 1204 1208 1218 1232 1252 1269 1286 1295 1293 1284 1275 1272 1274 1276 1276 1272 1270 1279 1292 1293 1289 1286 1292 1302 1310 1322 1338 1351 1360 1363 1363 1363 1364 1369 1378 1390 1406 1422 1437 1451 1464 1477 1489 1503 1515 1524 1530 1532 1530 1523 1512 1501 1494 1490 1489 1488 1493 1503 1510 1508 1500 1486 1476 1478 1487 1497 1509 1523 1537 1551 1565 1582 1599 1615 1629 1641 1652 1661 1663 -9999 -9999 -9999 -9999 -9999 -9999 -9999 -9999 -9999 -9999 -9999 -9999 -9999 -9999 -9999 -9999 -9999 -9999 -9999 -9999 -9999 -9999 -9999 -9999 -9999 -9999 -9999 -9999 -9999 -9999 -9999 -9999 -9999 -9999 -9999
-9999 -9999 -9999 -9999 -9999 -9999 -9999 -9999 -9999 -9999 -9999 -9999 -9999 -9999 -9999 -9999 -9999 -9999 -9999 -9999 -9999 -9999 -9999 -9999 -9999 -9999 -9999 -9999 -9999 -9999 -9999 -9999 -9999 -9999 -9999 -9999 -9999 -9999 -9999 -9999 -9999 -9999 719 722 725 728 731 736 740 746 754 763 769 773 776 779 779 774 767 768 767 767 764 765 756 745 743 743 744 747 750 752 754 755 756 758 760 763 765 766 768 770 773 775 777 779 782 784 785 786 787 789 790 791 792 793 795 797 798 800 802 803 804 804 804 805 806 806 806 805 805 804 804 803 804 804 805 805 805 805 805 805 805 804 803 801 800 799 798 796 795 794 793 793 792 791 792 791 790 790 789 789 789 789 789 789 788 786 785 785 784 784 784 784 783 784 785 787 790 791 790 791 791 792 793 793 795 796 798 801 803 806 810 813 818 823 829 835 841 847 852 858 863 866 869 872 875 877 878 879 880 881 880 880 879 879 878 878 877 876 876 876 876 876 876 876 876 876 876 876 876 876 876 878 882 886 891 902 913 926 940 953 962 971 982 995 1007 1018 1026 1029 1027 1031 1037 1039 1040 1048 1059 1075 1094 1111 1126 1141 1152 1164 1178 1183 1171 1157 1149 1148 1153 1155 1148 1142 1143 1153 1168 1182 1195 1207 1214 1213 1208 1200 1195 1187 1185 1186 1189 1196 1210 1229 1250 1266 1278 1282 1280 1270 1260 1255 1256 1258 1257 1249 1252 1265 1277 1278 1273 1269 1275 1287 1296 1307 1323 1335 1340 1339 1339 1341 1347 1357 1369 1382 1398 1417 1433 1445 1459 1472 1485 1498 1510 1517 1521 1524 1521 1513 1498 1484 1477 1473 1471 1471 1479 1490 1497 1497 1490 1475 1463 1465 1474 1485 1497 1510 1527 1542 1556 1571 1588 1604 1618 1630 1641 1653 1661 -9999 -9999 -9999 -9999 -9999 -9999 -9999 -9999 -9999 -9999 -9999 -9999 -9999 -9999 -9999 -9999 -9999 -9999 -9999 -9999 -9999 -9999 -9999 -9999 -9999 -9999 -9999 -9999 -9999 -9999 -9999 -9999 -9999 -9999 -9999
-9999 -9999 -9999 -9999 -9999 -9999 -9999 -9999 -9999 -9999 -9999 -9999 -9999 -9999 -9999 -9999 -9999 -9999 -9999 -9999 -9999 -9999 -9999 -9999 -9999 -9999 -9999 -9999 -9999 -9999 -9999 -9999 -9999 -9999 -9999 -9999 -9999 -9999 -9999 -9999 -9999 -9999 -9999 719 723 726 730 734 738 742 750 760 768 771 775 778 779 779 772 768 768 767 766 762 757 751 744 743 743 745 747 751 752 753 755 755 757 759 762 763 765 768 770 772 774 777 780 781 782 784 786 787 788 789 790 792 793 794 796 797 799 800 801 802 802 803 804 804 804 804 804 802 802 801 801 801 802 803 803 803 803 804 803 802 802 800 799 798 796 795 794 793 791 791 791 790 791 790 789 788 788 787 787 787 787 787 785 783 782 782 781 782 782 782 781 780 781 784 787 788 788 789 789 789 790 792 793 794 796 798 800 803 807 810 814 819 825 831 837 843 849 854 859 862 866 869 873 877 878 879 880 880 880 880 880 879 878 878 877 876 876 876 876 876 876 876 876 876 876 876 876 876 876 878 881 885 890 899 909 918 929 942 954 964 973 984 996 1008 1018 1023 1021 1023 1028 1027 1029 1039 1053 1069 1087 1105 1119 1133 1144 1155 1165 1169 1157 1144 1131 1129 1134 1133 1127 1123 1125 1135 1150 1165 1179 1192 1200 1197 1188 1180 1175 1172 1171 1173 1179 1189 1206 1227 1247 1261 1268 1270 1268 1258 1246 1239 1239 1240 1238 1231 1238 1253 1265 1265 1257 1251 1258 1271 1283 1296 1309 1317 1318 1316 1319 1325 1336 1349 1365 1380 1399 1418 1433 1444 1456 1469 1481 1492 1502 1509 1513 1515 1512 1502 1485 1468 1460 1456 1454 1454 1462 1475 1482 1483 1476 1462 1450 1452 1461 1473 1486 1500 1516 1532 1548 1563 1579 1594 1607 1619 1633 1645 1656 -9999 -9999 -9999 -9999 -9999 -9999 -9999 -9999 -9999 -9999 -9999 -9999 -9999 -9999 -9999 -9999 -9999 -9999 -9999 -9999 -9999 -9999 -9999 -9999 -9999 -9999 -9999 -9999 -9999 -9999 -9999 -9999 -9999 -9999 -9999
-9999 -9999 -9999 -9999 -9999 -9999 -9999 -9999 -9999 -9999 -9999 -9999 -9999 -9999 -9999 -9999 -9999 -9999 -9999 -9999 -9999 -9999 -9999 -9999 -9999 -9999 -9999 -9999 -9999 -9999 -9999 -9999 -9999 -9999 -9999 -9999 -9999 -9999 -9999 -9999 -9999 -9999 -9999 717 721 725 728 732 736 740 747 758 767 771 773 776 777 779 776 769 768 767 767 764 760 756 749 743 743 744 746 748 750 752 753 754 755 757 759 761 763 765 767 768 772 774 777 778 780 782 783 785 785 787 787 789 791 792 794 794 796 797 799 799 800 801 802 802 802 802 802 800 800 799 799 800 800 800 800 801 801 802 801 800 799 799 797 796 795 794 793 792 791 790 789 789 789 788 788 787 786 785 785 785 784 784 783 781 781 781 780 781 782 783 782 780 780 781 783 784 785 786 786 787 788 790 790 792 793 795 797 800 803 807 811 815 820 826 832 838 844 849 854 859 864 867 871 874 876 878 879 880 880 880 880 879 879 878 878 877 876 876 876 876 876 876 876 876 876 876 876 876 876 877 880 884 889 897 906 912 920 932 945 956 965 974 985 996 1006 1013 1014 1015 1018 1018 1020 1030 1045 1062 1080 1098 1112 1126 1136 1144 1152 1155 1146 1131 1114 1109 1112 1111 1109 1107 1110 1119 1134 1149 1164 1178 1186 1181 1169 1161 1158 1157 1158 1165 1175 1187 1205 1225 1240 1249 1253 1255 1254 1246 1234 1224 1220 1223 1223 1219 1226 1242 1252 1251 1240 1236 1245 1259 1271 1283 1295 1299 1298 1297 1305 1314 1329 1347 1365 1379 1400 1419 1433 1443 1454 1466 1476 1484 1492 1498 1502 1505 1502 1490 1472 1453 1442 1438 1436 1437 1447 1458 1464 1465 1460 1448 1434 1437 1449 1462 1474 1489 1505 1522 1539 1555 1570 1586 1600 1612 1625 1639 1650 1655 -9999 -9999 -9999 -9999 -9999 -9999 -9999 -9999 -9999 -9999 -9999 -9999 -9999 -9999 -9999 -9999 -9999 -9999 -9999 -9999 -9999 -9999 -9999 -9999 -9999 -9999 -9999 -9999 -9999 -9999 -9999 -9999 -9999 -9999
-9999 -9999 -9999 -9999 -9999 -9999 -9999 -9999 -9999 -9999 -9999 -9999 -9999 -9999 -9999 -9999 -9999 -9999 -9999 -9999 -9999 -9999 -9999 -9999 -9999 -9999 -9999 -9999 -9999 -9999 -9999 -9999 -9999 -9999 -9999 -9999 -9999 -9999 -9999 -9999 -9999 -9999 -9999 -9999 719 722 726 729 731 737 744 755 765 770 772 774 776 777 776 774 770 767 767 766 761 757 752 743 743 744 746 748 749 751 752 753 754 755 757 758 761 762 764 766 768 771 774 776 778 780 781 782 783 784 786 787 788 789 791 792 793 795 796 797 797 799 799 799 800 800 799 799 798 797 796 797 797 797 797 798 798 799 799 798 797 797 796 795 794 794 793 791 790 789 788 788 788 787 786 785 784 783 782 782 782 782 781 780 780 782 780 780 781 781 781 781 779 779 781 782 782 783 784 785 786 787 788 789 790 792 793 796 799 803 807 811 815 820 827 832 839 844 850 855 861 866 869 873 876 878 879 879 880 880 880 880 879 878 878 877 876 876 876 876 876 876 876 876 876 876 876 876 876 877 879 882 887 894 902 908 914 922 934 946 957 966 974 984 993 1001 1004 1007 1008 1009 1012 1020 1035 1054 1072 1089 1103 1116 1127 1134 1140 1143 1135 1118 1099 1090 1093 1093 1092 1091 1095 1106 1121 1135 1151 1167 1171 1163 1153 1146 1145 1144 1149 1160 1173 1188 1205 1221 1231 1235 1237 1239 1238 1234 1221 1208 1202 1206 1205 1204 1215 1231 1237 1234 1225 1224 1234 1248 1261 1271 1277 1279 1278 1281 1291 1306 1326 1347 1365 1378 1399 1418 1432 1442 1451 1460 1465 1471 1475 1482 1487 1492 1491 1478 1460 1442 1426 1419 1418 1420 1431 1443 1448 1447 1442 1430 1418 1421 1437 1451 1464 1481 1496 1515 1533 1550 1564 1578 1593 1605 1618 1633 1645 1654 -9999 -9999 -9999 -9999 -9999 -9999 -9999 -9999 -9999 -9999 -9999 -9999 -9999 -9999 -9999 -9999 -9999 -9999 -9999 -9999 -9999 -9999 -9999 -9999 -9999 -9999 -9999 -9999 -9999 -9999 -9999 -9999 -9999 -9999
